ply
format ascii 1.0
element vertex 1229
property float x
property float y
property float z
property uchar red
property uchar green
property uchar blue
end_header
0.445922 -0.758607 2.758240 101 103 102
0.450203 -0.748597 2.721843 100 102 101
0.452233 -0.735368 2.673746 102 104 103
0.462403 -0.735662 2.674814 98 100 99
0.480952 -0.748992 2.723279 102 104 104
0.491533 -0.749617 2.725554 99 101 97
0.510110 -0.762164 2.771174 101 103 100
0.520760 -0.762604 2.772774 98 100 97
0.539179 -0.774182 2.814869 98 100 97
0.547681 -0.771350 2.804574 100 102 99
0.558102 -0.771277 2.804306 99 101 98
0.569035 -0.771901 2.806574 101 103 100
0.579547 -0.771941 2.806720 102 104 101
0.581213 -0.760407 2.764784 103 105 102
0.591831 -0.760781 2.766145 102 104 101
0.590497 -0.746044 2.712561 104 106 103
0.590119 -0.732992 2.665106 103 105 102
0.599644 -0.732468 2.663201 105 107 104
0.600745 -0.721840 2.624557 105 107 104
0.610379 -0.721641 2.623835 107 109 106
0.617082 -0.718038 2.610735 105 107 104
0.626940 -0.718162 2.611185 106 108 105
0.633442 -0.714496 2.597854 106 108 105
0.642480 -0.713758 2.595173 106 108 105
0.652192 -0.713779 2.595249 106 108 105
0.663310 -0.715317 2.600840 106 108 105
0.673192 -0.715496 2.601493 106 108 105
0.679981 -0.712429 2.590341 107 109 106
0.689786 -0.712565 2.590833 106 108 105
0.693908 -0.706906 2.570260 106 108 105
0.697054 -0.700422 2.546683 107 109 106
0.706553 -0.700410 2.546641 107 109 106
0.714935 -0.699306 2.542626 107 109 106
0.724405 -0.699281 2.542535 106 108 105
0.730474 -0.696015 2.530661 106 108 104
0.739909 -0.696000 2.530606 107 109 106
0.749212 -0.695863 2.530106 107 109 109
0.755687 -0.693135 2.520187 107 109 107
0.765085 -0.693121 2.520139 107 109 106
0.772834 -0.691634 2.514731 110 112 109
0.782277 -0.691679 2.514895 109 111 108
0.788126 -0.688583 2.503639 108 110 107
0.797491 -0.688595 2.503683 107 109 106
0.816292 -0.696661 2.533010 109 111 108
0.819729 -0.691580 2.514533 110 112 109
0.828927 -0.691419 2.513947 108 110 107
0.833623 -0.687548 2.499875 108 110 107
0.842879 -0.687483 2.499638 110 112 109
0.835846 -0.674278 2.451626 110 112 109
0.845045 -0.674312 2.451750 109 111 108
0.852661 -0.673096 2.447329 110 112 109
0.856654 -0.669076 2.432711 108 110 107
0.865828 -0.669144 2.432960 111 113 110
0.868985 -0.664609 2.416471 107 109 106
0.878135 -0.664705 2.416818 110 112 109
0.879632 -0.659063 2.396305 110 112 109
0.888600 -0.659077 2.396357 109 111 108
0.895250 -0.657388 2.390217 112 114 111
0.897383 -0.652449 2.372257 111 113 110
0.906327 -0.652509 2.372477 110 112 109
0.911242 -0.649697 2.362249 109 111 108
0.919977 -0.649634 2.362023 107 109 106
0.916846 -0.641274 2.331627 105 107 104
0.925570 -0.641286 2.331669 105 107 104
0.930261 -0.638528 2.321643 107 109 106
0.929584 -0.632171 2.298529 107 109 106
0.938163 -0.632168 2.298517 107 109 106
0.938714 -0.626804 2.279014 107 109 106
0.947219 -0.626800 2.278998 106 108 105
0.933660 -0.612325 2.226370 106 108 105
0.941959 -0.612314 2.226331 106 108 105
0.932225 -0.600685 2.184047 106 108 105
0.921504 -0.588627 2.140204 106 108 105
0.929481 -0.588616 2.140165 106 108 105
0.932862 -0.585721 2.129638 106 108 104
0.940800 -0.585711 2.129603 106 108 102
0.841899 -0.426734 1.551573 57 40 32
0.847774 -0.426774 1.551720 56 39 31
0.862144 -0.431062 1.567308 56 38 30
0.865896 -0.430018 1.563513 53 36 28
0.872787 -0.430536 1.565399 55 40 31
0.871666 -0.427123 1.552987 62 44 36
0.683430 -0.295554 1.074612 255 254 245
0.678854 -0.291861 1.061185 255 252 241
0.680648 -0.290934 1.057815 255 255 234
0.684557 -0.290916 1.057750 255 255 237
0.686977 -0.290270 1.055399 254 248 220
0.688464 -0.289238 1.051650 255 254 232
0.695248 -0.290431 1.055987 240 236 206
0.659005 -0.252385 0.917653 195 186 121
0.662458 -0.252395 0.917689 192 183 115
0.658755 -0.249692 0.907862 197 188 120
0.661683 -0.249518 0.907228 196 184 118
0.652984 -0.244983 0.890739 194 182 116
0.656759 -0.245150 0.891348 193 182 116
0.654177 -0.242955 0.883366 192 181 115
0.655790 -0.242332 0.881100 190 179 113
0.659061 -0.242325 0.881075 191 179 114
0.659679 -0.241347 0.877519 194 182 117
0.663248 -0.241453 0.877905 193 182 116
0.662580 -0.240023 0.872707 190 179 113
0.665568 -0.239926 0.872352 186 175 109
0.666620 -0.239134 0.869475 180 169 103
0.669014 -0.238829 0.868367 178 167 100
0.673222 -0.239172 0.869613 180 169 103
0.677779 -0.239635 0.871296 185 174 107
0.681794 -0.239903 0.872269 187 176 109
0.681881 -0.238793 0.868233 187 175 110
0.685014 -0.238754 0.868094 182 172 107
0.685239 -0.237708 0.864288 179 165 102
0.668184 -0.230705 0.838825 179 163 100
0.677122 -0.232700 0.846079 178 165 103
0.675133 -0.226726 0.824359 136 122 68
0.676279 -0.226080 0.822010 132 119 62
0.680044 -0.226311 0.822851 135 121 71
0.682624 -0.226148 0.822257 134 120 67
0.685774 -0.226174 0.822352 132 120 70
0.685894 -0.225205 0.818828 132 120 69
0.689199 -0.225286 0.819122 133 120 74
0.695534 -0.226352 0.822999 132 118 74
0.696199 -0.225571 0.820161 131 117 73
0.700010 -0.225813 0.821038 127 114 70
0.700285 -0.224916 0.817778 120 107 63
0.700321 -0.223951 0.814269 113 100 58
0.697831 -0.222190 0.807866 110 96 54
0.701477 -0.222389 0.808590 107 96 57
0.706020 -0.222870 0.810339 108 96 56
0.713184 -0.224170 0.815067 106 95 58
0.717618 -0.224605 0.816649 103 92 54
0.722683 -0.225233 0.818933 107 96 58
0.724552 -0.224864 0.817590 111 100 62
0.721748 -0.223054 0.811008 114 103 64
0.726255 -0.223509 0.812662 108 97 56
0.728914 -0.222468 0.808877 101 88 54
0.730055 -0.221897 0.806800 103 91 56
0.734997 -0.222480 0.808922 105 91 57
0.735446 -0.221705 0.806103 108 95 60
0.734428 -0.220495 0.801705 118 105 72
0.736293 -0.220158 0.800478 124 111 77
0.738179 -0.219829 0.799283 126 113 78
0.740453 -0.219618 0.798516 126 112 78
0.743665 -0.219686 0.798763 125 114 78
0.744483 -0.219049 0.796447 121 113 76
0.748468 -0.219345 0.797523 119 109 74
0.750547 -0.219083 0.796569 117 105 75
0.755194 -0.219569 0.798337 116 105 73
0.759399 -0.219923 0.799625 112 101 69
0.763176 -0.220151 0.800454 107 96 62
0.766002 -0.220104 0.800283 103 92 63
0.771635 -0.220861 0.803035 102 90 60
0.774606 -0.220853 0.803005 100 90 59
0.710164 -0.170748 0.620827 35 31 27
0.712499 -0.170752 0.620841 34 31 29
0.716043 -0.171045 0.621906 34 30 28
0.718367 -0.171045 0.621906 34 30 27
0.717079 -0.170188 0.618791 31 27 24
0.716118 -0.169414 0.615977 30 26 23
0.718364 -0.169401 0.615930 28 24 21
0.714820 -0.168027 0.610935 27 24 20
0.717155 -0.168040 0.610980 25 26 21
0.716831 -0.167431 0.608768 26 25 20
0.719091 -0.167428 0.608756 25 25 20
0.718738 -0.166818 0.606540 24 24 19
0.720706 -0.166750 0.606290 22 23 17
0.723083 -0.166776 0.606384 16 17 12
-3.890828 -0.886815 3.268782 142 147 143
-3.551431 -0.822359 3.031200 205 213 207
-3.505050 -0.814215 3.001180 215 222 217
-0.612638 -0.189609 0.698894 25 25 25
-0.610028 -0.189609 0.698894 25 25 25
-0.609674 -0.190313 0.701490 25 25 25
-0.607041 -0.190309 0.701475 25 25 25
-0.613071 -0.193032 0.711513 25 25 25
-0.610366 -0.193017 0.711458 26 26 26
-0.615005 -0.195335 0.720000 25 25 25
-0.607347 -0.193749 0.714156 26 26 27
-0.604570 -0.193714 0.714027 24 24 22
-0.596767 -0.192061 0.707934 23 23 22
-0.593996 -0.192020 0.707783 23 24 20
-2.450651 -0.821463 3.027896 159 162 151
-2.443931 -0.823008 3.033591 154 159 144
-2.440361 -0.825633 3.043267 149 153 138
-2.457521 -0.835329 3.079007 147 151 136
-2.447473 -0.835825 3.080834 147 151 137
-2.431629 -0.834337 3.075348 149 153 138
-2.420403 -0.834426 3.075678 150 154 138
-2.435216 -0.843536 3.109257 149 153 138
-2.423903 -0.843640 3.109641 147 151 136
-2.385821 -0.834383 3.075521 147 151 136
-2.393250 -0.841031 3.100022 150 154 138
-2.359483 -0.833195 3.071140 145 149 132
-2.347956 -0.833175 3.071066 148 152 135
-2.315049 -0.825530 3.042889 139 143 127
-2.284563 -0.818678 3.017631 130 134 118
-2.165747 -0.791723 2.918275 127 131 115
-2.241454 -0.823543 3.035563 135 139 125
-2.241607 -0.827786 3.051203 144 148 133
-2.204946 -0.818408 3.016637 161 165 151
-2.201741 -0.821416 3.027723 157 161 146
-2.183918 -0.818972 3.018716 158 160 150
-2.154675 -0.812199 2.993749 159 162 150
-2.123990 -0.804809 2.966508 160 162 154
-2.100308 -0.800008 2.948815 172 175 167
-2.095195 -0.802267 2.957142 166 168 160
-2.054309 -0.799251 2.946023 68 71 64
-2.079399 -0.813369 2.998060 74 77 70
-2.060398 -0.810299 2.986747 76 77 73
-2.047872 -0.809757 2.984748 75 77 72
-2.038104 -0.810305 2.986769 74 76 71
-2.032464 -0.812510 2.994896 73 75 70
-2.020742 -0.812294 2.994100 68 70 68
-2.012329 -0.813414 2.998226 61 63 60
-1.986580 -0.807499 2.976425 59 61 58
-1.980575 -0.809588 2.984125 56 58 55
-1.933985 -0.795018 2.930418 59 61 58
-1.923481 -0.795199 2.931089 54 56 53
-1.887129 -0.784636 2.892153 55 57 54
-1.877966 -0.785322 2.894680 53 55 52
-1.853022 -0.779377 2.872769 53 55 52
-1.832019 -0.775031 2.856748 53 55 52
-1.827194 -0.777517 2.865913 47 49 46
-1.822454 -0.780070 2.875323 46 48 45
-1.793734 -0.772328 2.846784 39 41 38
-1.778507 -0.784368 2.891164 50 52 49
-1.742700 -0.778023 2.867779 74 76 73
-1.747626 -0.785047 2.893668 74 76 73
-1.698719 -0.767826 2.830191 71 73 70
-1.692807 -0.769945 2.838001 71 73 72
-1.633597 -0.747695 2.755990 64 66 66
-1.581819 -0.733236 2.702694 57 59 58
-1.021120 -0.743908 2.742029 176 180 188
-1.011018 -0.744010 2.742404 177 191 158
-0.987670 -0.734266 2.706491 175 188 162
-0.977090 -0.733912 2.705184 176 184 159
-0.953188 -0.723439 2.666581 172 182 156
-0.937053 -0.718702 2.649121 174 180 158
-0.925803 -0.717651 2.645245 173 179 157
-0.919458 -0.720420 2.655453 175 180 158
-0.908724 -0.719773 2.653070 172 177 154
-0.898947 -0.719879 2.653459 172 177 155
-0.880802 -0.721250 2.658512 168 174 150
-0.891668 -0.755704 2.785509 40 41 41
-0.880493 -0.755041 2.783067 41 43 39
-0.881191 -0.764666 2.818545 51 53 51
-0.866023 -0.760591 2.803522 51 53 51
-0.860743 -0.765204 2.820527 62 63 61
-0.837485 -0.753752 2.778316 73 75 72
-0.825126 -0.751945 2.771655 81 83 77
-0.793984 -0.732758 2.700932 88 90 84
-0.797967 -0.745911 2.749412 87 89 87
-0.769486 -0.728664 2.685840 86 88 86
-0.759556 -0.728761 2.686197 70 72 73
-0.743994 -0.723384 2.666378 65 67 67
-0.733092 -0.722454 2.662952 58 60 60
-0.721895 -0.721203 2.658341 60 62 62
-0.708936 -0.718133 2.647024 60 62 62
-0.697133 -0.716164 2.639767 62 64 64
-0.685841 -0.714670 2.634260 61 63 63
-0.674066 -0.712623 2.626716 63 66 66
-0.673987 -0.723063 2.665194 52 51 52
-0.663363 -0.722333 2.662503 48 48 48
-0.656252 -0.725465 2.674048 50 50 50
-0.633127 -0.710716 2.619686 44 44 44
-0.627393 -0.715334 2.636705 48 48 48
-0.604366 -0.700066 2.580431 46 46 46
-0.596904 -0.702628 2.589872 48 48 48
-0.579914 -0.693871 2.557595 41 41 41
-0.586910 -0.714003 2.631801 46 46 46
-0.576946 -0.713836 2.631187 48 48 48
-0.575878 -0.724861 2.671823 48 48 48
-0.563747 -0.722104 2.661660 50 50 50
-0.567579 -0.740061 2.727849 47 47 47
-0.559107 -0.742340 2.736249 45 45 45
-0.551638 -0.746059 2.749957 46 46 46
-0.549117 -0.756738 2.789322 46 46 45
-0.538176 -0.756002 2.786608 45 45 47
-0.531090 -0.760760 2.804146 48 47 50
-0.520513 -0.760607 2.803584 48 50 49
-0.512323 -0.764008 2.816118 44 46 45
-0.502526 -0.765105 2.820161 42 44 43
-0.497668 -0.773929 2.852687 42 44 43
-0.489986 -0.778653 2.870100 44 46 45
-0.479121 -0.778415 2.869221 45 47 46
-0.475702 -0.790541 2.913919 46 48 47
-0.464188 -0.789468 2.909965 45 47 46
-0.455539 -0.793332 2.924207 44 46 45
-0.444733 -0.793538 2.924965 45 47 46
-0.434146 -0.794154 2.927236 47 49 48
-0.430697 -0.808195 2.978992 50 52 51
-0.420476 -0.809940 2.985421 48 50 49
-0.410684 -0.812625 2.995320 46 48 47
-0.398089 -0.809760 2.984760 50 52 51
-0.390369 -0.816933 3.011197 48 50 49
-0.378264 -0.815082 3.004375 41 43 42
-0.369766 -0.821127 3.026656 39 41 40
-0.355295 -0.813872 2.999917 39 41 40
-0.344765 -0.815466 3.005793 42 44 43
-0.327720 -0.801240 2.953353 39 41 40
-0.316616 -0.801051 2.952659 39 41 37
-0.295613 -0.774902 2.856272 42 44 41
-0.284718 -0.774282 2.853989 39 41 38
-0.271383 -0.766722 2.826121 39 41 38
-0.257610 -0.757263 2.791256 39 41 39
-0.248017 -0.759810 2.800644 42 44 42
-0.238233 -0.761970 2.808606 43 45 38
-0.228420 -0.764235 2.816954 41 43 37
-0.215858 -0.757072 2.790551 37 39 34
-0.203184 -0.748772 2.759959 31 33 28
-0.139581 -0.797637 2.940072 81 84 77
-0.120925 -0.750027 2.764584 65 68 61
-0.109326 -0.741388 2.732743 70 74 66
-0.099492 -0.744174 2.743011 62 66 58
-0.088485 -0.737811 2.719556 66 70 61
-0.078232 -0.736908 2.716230 60 64 55
-0.067649 -0.732160 2.698727 66 70 61
-0.057686 -0.733635 2.704164 67 71 62
-0.047925 -0.738846 2.723372 71 73 69
-0.038301 -0.749556 2.762850 74 75 71
-0.027919 -0.747869 2.756631 70 72 71
-0.017964 -0.762307 2.809848 70 72 72
-0.007477 -0.762933 2.812157 70 72 71
0.002993 -0.754659 2.781659 69 71 70
0.013396 -0.755471 2.784650 72 74 72
0.023987 -0.761534 2.807000 73 75 73
0.035128 -0.776052 2.860511 76 78 76
0.045693 -0.774053 2.853142 73 75 74
0.057261 -0.786591 2.899360 75 77 76
0.068029 -0.785894 2.896790 77 79 78
0.078570 -0.783128 2.886594 79 81 77
0.089362 -0.783224 2.886949 81 83 77
0.099730 -0.779986 2.875013 81 83 78
0.110300 -0.778802 2.870649 84 86 81
0.120978 -0.778527 2.869636 86 88 83
0.134068 -0.792556 2.921345 87 89 83
0.144863 -0.791926 2.919022 89 91 87
0.157124 -0.798833 2.944484 89 91 89
0.167946 -0.798003 2.941424 91 93 90
0.183473 -0.818258 3.016083 93 95 92
0.195047 -0.819560 3.020881 94 96 93
0.206209 -0.819082 3.019122 94 96 93
0.216657 -0.815965 3.007629 93 95 92
0.227866 -0.815880 3.007318 94 96 93
0.232925 -0.794817 2.929680 96 98 95
0.243949 -0.795089 2.930682 95 97 94
0.250982 -0.782884 2.885695 97 99 96
0.259396 -0.775817 2.859646 97 99 96
0.270056 -0.775759 2.859433 96 98 95
0.282839 -0.781573 2.880863 96 98 95
0.293477 -0.781250 2.879670 95 97 94
0.304085 -0.780874 2.878285 98 100 96
0.314875 -0.780974 2.878655 98 100 97
0.326297 -0.782582 2.884580 96 98 97
0.333432 -0.774135 2.853447 96 98 97
0.344121 -0.774207 2.853711 98 100 99
0.353066 -0.770471 2.839941 98 100 99
0.363743 -0.770620 2.840490 99 101 100
0.371371 -0.764485 2.817875 97 99 98
0.381869 -0.764433 2.817683 97 99 98
0.391570 -0.762830 2.811776 97 99 98
0.398028 -0.755160 2.783503 99 101 100
0.408436 -0.755183 2.783588 98 100 99
0.418009 -0.753698 2.778117 100 102 101
0.428125 -0.753242 2.776434 97 99 98
0.435988 -0.748937 2.760568 102 104 103
0.445856 -0.748196 2.757836 98 100 99
0.450215 -0.738452 2.721918 102 104 103
0.452288 -0.725472 2.674074 98 100 99
0.462164 -0.725297 2.673432 102 104 103
0.480731 -0.738481 2.722024 102 104 104
0.491076 -0.738750 2.723019 100 102 98
0.510299 -0.752093 2.772201 96 98 95
0.520926 -0.752488 2.773656 103 105 102
0.539180 -0.763671 2.814877 99 101 98
0.547921 -0.761210 2.805805 104 106 103
0.558111 -0.760815 2.804350 101 103 100
0.569172 -0.761602 2.807251 100 102 99
0.579598 -0.761525 2.806967 103 105 102
0.581645 -0.750638 2.766836 105 107 104
0.591776 -0.750381 2.765891 106 108 105
0.590434 -0.735835 2.712273 106 108 105
0.589760 -0.722599 2.663485 105 107 104
0.599835 -0.722752 2.664050 104 106 103
0.600851 -0.712164 2.625023 104 106 103
0.610687 -0.712202 2.625162 104 106 103
0.617234 -0.708463 2.611379 105 107 104
0.627069 -0.708556 2.611723 104 106 103
0.633688 -0.705067 2.598863 106 108 105
0.642686 -0.704291 2.596004 105 107 104
0.652358 -0.704266 2.595911 104 106 103
0.663526 -0.705833 2.601688 105 107 104
0.673357 -0.705953 2.602130 107 109 106
0.680102 -0.702881 2.590805 107 109 106
0.689822 -0.702925 2.590967 105 107 104
0.693905 -0.697304 2.570249 106 108 105
0.697057 -0.690914 2.546694 107 109 106
0.706541 -0.690887 2.546595 106 108 105
0.714912 -0.689788 2.542543 105 107 104
0.724413 -0.689793 2.542562 106 108 105
0.730460 -0.686551 2.530615 105 107 103
0.739922 -0.686561 2.530650 104 106 104
0.749254 -0.686452 2.530249 106 108 108
0.755715 -0.683748 2.520282 107 109 108
0.765111 -0.683734 2.520228 108 110 107
0.772796 -0.682208 2.514605 109 111 108
0.782227 -0.682243 2.514735 109 111 108
0.788163 -0.679265 2.503756 108 110 107
0.797476 -0.679232 2.503636 107 109 106
0.816287 -0.687197 2.532994 109 111 108
0.819531 -0.682024 2.513925 109 111 108
0.828955 -0.682052 2.514032 110 112 109
0.833370 -0.678006 2.499117 108 110 107
0.842809 -0.678091 2.499430 110 112 109
0.835842 -0.665119 2.451614 110 112 109
0.845025 -0.665140 2.451692 108 110 107
0.852634 -0.663935 2.447250 110 112 109
0.856734 -0.660052 2.432939 110 112 109
0.865927 -0.660133 2.433239 110 112 109
0.869111 -0.655680 2.416821 107 109 106
0.878228 -0.655748 2.417073 110 112 109
0.879637 -0.650118 2.396320 109 111 108
0.888625 -0.650146 2.396424 109 111 108
0.895201 -0.648426 2.390084 111 113 110
0.897392 -0.643595 2.372279 109 111 108
0.906343 -0.643660 2.372519 110 112 109
0.911154 -0.640812 2.362021 108 110 107
0.919947 -0.640792 2.361947 108 110 107
0.916807 -0.632540 2.331529 106 108 105
0.925615 -0.632609 2.331783 107 109 106
0.930320 -0.629898 2.321790 107 109 106
0.929646 -0.623629 2.298683 106 108 105
0.938143 -0.623570 2.298466 108 110 107
0.938724 -0.618299 2.279038 108 110 107
0.947257 -0.618313 2.279089 107 109 106
0.933631 -0.603991 2.226300 106 108 105
0.941858 -0.603935 2.226094 105 107 104
0.932243 -0.592539 2.184088 106 108 105
0.921457 -0.580603 2.140093 106 108 105
0.929504 -0.580638 2.140218 106 108 106
0.932862 -0.577767 2.129638 106 108 105
0.940800 -0.577758 2.129603 106 108 102
0.841915 -0.420947 1.551603 56 40 32
0.848308 -0.421244 1.552697 57 39 32
0.862209 -0.425240 1.567427 58 38 33
0.866408 -0.424429 1.564438 56 38 32
0.872986 -0.424787 1.565757 54 41 33
0.868444 -0.419765 1.547246 63 46 39
0.682578 -0.291177 1.073273 255 255 248
0.679001 -0.287960 1.061416 253 255 244
0.681802 -0.287470 1.059608 255 255 239
0.684490 -0.286938 1.057646 255 255 245
0.687431 -0.286517 1.056097 255 255 238
0.687423 -0.284879 1.050059 250 251 233
0.691710 -0.285030 1.050614 253 246 219
0.688589 -0.282143 1.039974 251 244 221
0.680119 -0.277110 1.021421 247 241 209
0.659036 -0.248969 0.917696 194 185 120
0.662464 -0.248969 0.917697 193 184 115
0.658266 -0.246119 0.907189 194 185 117
0.661586 -0.246093 0.907095 195 183 117
0.653216 -0.241742 0.891056 194 182 115
0.656774 -0.241827 0.891368 194 183 116
0.654175 -0.239655 0.883363 194 182 115
0.655786 -0.239040 0.881096 192 181 114
0.659059 -0.239033 0.881072 192 181 114
0.659747 -0.238094 0.877610 193 182 115
0.663291 -0.238190 0.877963 192 181 114
0.662554 -0.236755 0.872673 189 179 111
0.665426 -0.236617 0.872166 186 175 109
0.666462 -0.235831 0.869269 180 169 103
0.669470 -0.235747 0.868959 181 170 104
0.673417 -0.235993 0.869865 182 171 104
0.677966 -0.236446 0.871536 186 175 109
0.681426 -0.236518 0.871799 188 177 109
0.681494 -0.235416 0.867740 185 174 110
0.685021 -0.235515 0.868102 183 172 109
0.685111 -0.234436 0.864126 178 166 102
0.668418 -0.227652 0.839119 175 163 98
0.672262 -0.223716 0.824614 142 130 72
0.674983 -0.223597 0.824175 136 122 68
0.676578 -0.223109 0.822373 133 120 64
0.680226 -0.223298 0.823072 138 124 74
0.682814 -0.223139 0.822486 136 122 69
0.685885 -0.223139 0.822485 134 122 72
0.686194 -0.222244 0.819187 135 123 71
0.689216 -0.222232 0.819142 135 121 76
0.695198 -0.223170 0.822600 134 120 76
0.696629 -0.222646 0.820668 132 118 74
0.700057 -0.222761 0.821093 124 111 67
0.697449 -0.220963 0.814467 118 105 62
0.703859 -0.222026 0.818383 120 108 66
0.700289 -0.219945 0.810712 120 107 64
0.702665 -0.219741 0.809960 120 107 64
0.707913 -0.220433 0.812512 120 107 64
0.713074 -0.221092 0.814941 120 105 68
0.716177 -0.221110 0.815009 119 104 66
0.721712 -0.221877 0.817832 123 109 70
0.724559 -0.221813 0.817598 122 108 69
0.719323 -0.219286 0.808284 122 108 71
0.720752 -0.218803 0.806504 125 110 74
0.720799 -0.217907 0.803201 125 111 74
0.720576 -0.216937 0.799625 124 110 73
0.721534 -0.216329 0.797383 125 111 73
0.730083 -0.217992 0.803515 126 116 76
0.732336 -0.217770 0.802694 129 118 77
0.735404 -0.217790 0.802771 124 111 78
0.737401 -0.217495 0.801682 123 111 76
0.742424 -0.218091 0.803879 121 109 75
0.746269 -0.218338 0.804789 121 107 74
0.749329 -0.218354 0.804847 117 107 72
0.751664 -0.218159 0.804129 116 108 72
0.754295 -0.218051 0.803732 116 108 72
0.754854 -0.217348 0.801140 115 107 70
0.758400 -0.217507 0.801726 115 106 69
0.761178 -0.217445 0.801498 108 98 66
0.763164 -0.217158 0.800441 105 94 61
0.765479 -0.216967 0.799736 102 91 62
0.772271 -0.218042 0.803697 101 89 59
0.775240 -0.218032 0.803663 100 91 59
0.710165 -0.168430 0.620828 35 31 27
0.712519 -0.168438 0.620859 34 30 27
0.716107 -0.168737 0.621961 33 29 26
0.718253 -0.168695 0.621808 34 30 27
0.717121 -0.167887 0.618828 30 26 23
0.715886 -0.167059 0.615777 28 24 21
0.718349 -0.167097 0.615917 27 22 20
0.714809 -0.165743 0.610925 26 22 20
0.717181 -0.165764 0.611002 25 24 20
0.716863 -0.165165 0.608795 26 23 20
0.719028 -0.165140 0.608703 26 24 21
0.718627 -0.164528 0.606446 23 22 19
0.720644 -0.164471 0.606238 24 22 19
0.722857 -0.164459 0.606194 20 17 16
0.728705 -0.162233 0.597988 192 195 195
0.729075 -0.160837 0.592841 189 194 193
-3.414919 -0.779864 2.914685 225 231 223
-3.332901 -0.766017 2.862934 241 243 240
-3.291823 -0.761461 2.845908 248 249 248
-0.620117 -0.188478 0.704424 27 26 26
-0.610822 -0.186444 0.696822 25 26 26
-0.608302 -0.186469 0.696917 26 26 26
-0.608196 -0.187238 0.699789 26 26 26
-0.605716 -0.187279 0.699944 25 25 25
-0.611021 -0.189738 0.709134 26 26 26
-0.608271 -0.189707 0.709016 23 23 23
-0.618709 -0.193806 0.724336 26 26 26
-0.604839 -0.190293 0.711207 24 24 25
-0.602326 -0.190338 0.711377 25 25 23
-0.596915 -0.189464 0.708109 25 24 22
-0.593678 -0.189275 0.707403 24 25 20
-2.442081 -0.814842 3.045413 156 159 148
-2.448480 -0.820799 3.067680 147 150 137
-2.436732 -0.820701 3.067313 147 152 136
-2.401924 -0.812799 3.037780 149 153 139
-2.387669 -0.811810 3.034082 150 154 139
-2.396950 -0.818852 3.060400 146 150 136
-2.391949 -0.821058 3.068647 142 146 131
-2.372617 -0.818343 3.058500 135 139 124
-2.357652 -0.817116 3.053912 134 138 121
-2.342076 -0.815663 3.048484 136 140 122
-2.311275 -0.808868 3.023088 135 139 122
-2.301019 -0.809232 3.024447 135 139 122
-2.274455 -0.803836 3.004279 136 140 123
-2.269133 -0.805930 3.012109 135 139 124
-2.236225 -0.798200 2.983216 138 142 126
-2.240078 -0.803579 3.003320 140 144 129
-2.233616 -0.805293 3.009725 140 144 128
-2.250150 -0.815357 3.047339 140 144 129
-2.242709 -0.816792 3.052703 140 144 128
-2.213124 -0.810136 3.027825 158 162 148
-2.204884 -0.811265 3.032044 155 159 145
-2.209792 -0.817267 3.054480 160 165 149
-2.137523 -0.794642 2.969918 162 167 150
-2.140532 -0.799911 2.989612 163 166 156
-2.104010 -0.790386 2.954012 171 174 165
-2.097182 -0.791974 2.959946 159 162 153
-2.067154 -0.797448 2.980406 77 80 73
-2.050929 -0.795472 2.973021 71 72 68
-2.031897 -0.792380 2.961465 71 73 68
-2.017226 -0.790965 2.956175 71 73 68
-2.019009 -0.796020 2.975070 71 73 68
-2.012857 -0.797986 2.982417 68 70 64
-1.985449 -0.791500 2.958177 69 71 64
-2.005022 -0.803776 3.004055 72 74 70
-1.987774 -0.801345 2.994972 68 70 67
-1.945578 -0.788773 2.947983 63 65 62
-1.932163 -0.787792 2.944319 59 61 58
-1.897702 -0.778170 2.908357 58 60 57
-1.887896 -0.778606 2.909986 57 59 56
-1.866761 -0.774347 2.894067 54 56 53
-1.827094 -0.762307 2.849068 52 54 51
-1.818857 -0.763315 2.852837 51 53 50
-1.789111 -0.755256 2.822716 50 52 49
-1.778526 -0.755238 2.822648 47 49 46
-1.738169 -0.742501 2.775047 49 51 48
-1.728949 -0.742993 2.776885 43 45 42
-1.741941 -0.753094 2.814635 50 52 49
-1.743550 -0.758366 2.834338 51 53 50
-1.746083 -0.764106 2.855793 60 62 59
-1.749734 -0.770410 2.879354 64 66 63
-1.744097 -0.772677 2.887825 64 66 63
-1.690584 -0.753630 2.816638 63 65 61
-1.680901 -0.754005 2.818039 62 64 63
-1.633105 -0.737180 2.755160 61 63 62
-0.852055 -0.527544 1.971659 92 105 147
-0.844633 -0.527508 1.971524 91 104 146
-0.823485 -0.518823 1.939064 92 105 147
-0.816205 -0.518799 1.938974 92 105 148
-0.772900 -0.495671 1.852534 91 105 147
-0.766142 -0.495774 1.852921 90 105 148
-0.735427 -0.480236 1.794849 90 106 147
-0.719122 -0.473909 1.771202 92 109 145
-0.712769 -0.474083 1.771851 92 108 146
-0.947434 -0.694657 2.596233 180 193 177
-0.940823 -0.696943 2.604775 174 184 158
-0.929222 -0.695541 2.599536 172 184 159
-0.906251 -0.685509 2.562043 170 180 156
-0.896931 -0.685699 2.562751 169 179 155
-0.889172 -0.687099 2.567984 173 178 157
-0.880790 -0.688043 2.571513 172 176 154
-0.869997 -0.687104 2.568004 174 179 159
-0.852578 -0.680853 2.544640 180 185 166
-0.865848 -0.699244 2.613377 172 177 158
-0.883502 -0.747192 2.792579 45 48 39
-0.898123 -0.768631 2.872705 41 45 37
-0.875103 -0.757985 2.832916 51 54 47
-0.890069 -0.780383 2.916625 57 59 53
-0.862693 -0.765751 2.861942 67 69 64
-0.839958 -0.754924 2.821477 78 80 74
-0.799258 -0.727472 2.718874 79 81 76
-0.800851 -0.738301 2.759350 87 89 87
-0.766840 -0.716162 2.676604 83 85 82
-0.759703 -0.718868 2.686717 74 77 73
-0.768149 -0.736589 2.752948 64 66 62
-0.760364 -0.739015 2.762016 55 57 53
-0.748391 -0.737382 2.755912 59 61 57
-0.730416 -0.729706 2.727226 62 64 60
-0.719661 -0.729129 2.725069 61 63 59
-0.709846 -0.729502 2.726464 62 64 59
-0.697798 -0.727557 2.719194 64 67 61
-0.693765 -0.734035 2.743404 55 54 55
-0.684516 -0.735105 2.747403 55 55 55
-0.673950 -0.734773 2.746161 47 47 47
-0.653440 -0.723421 2.703735 45 45 45
-0.644388 -0.724596 2.708127 49 49 49
-0.626754 -0.716006 2.676022 44 44 44
-0.617975 -0.717416 2.681292 48 48 48
-0.602858 -0.711394 2.658786 47 47 47
-0.604085 -0.724780 2.708816 46 46 46
-0.592934 -0.723519 2.704100 45 45 45
-0.595632 -0.739405 2.763473 46 46 46
-0.582534 -0.735896 2.750359 42 42 42
-0.586812 -0.754607 2.820289 41 41 41
-0.576874 -0.755386 2.823202 40 40 40
-0.566405 -0.755485 2.823574 44 44 44
-0.553968 -0.752914 2.813962 47 47 46
-0.543588 -0.753094 2.814635 47 47 49
-0.532168 -0.751810 2.809839 48 47 51
-0.521753 -0.751923 2.810261 45 46 46
-0.512657 -0.753983 2.817958 42 44 43
-0.501936 -0.753687 2.816851 41 43 42
-0.498165 -0.764039 2.855541 42 44 43
-0.495120 -0.775980 2.900172 41 43 42
-0.485381 -0.777731 2.906714 39 41 40
-0.480100 -0.786867 2.940861 39 41 40
-0.468964 -0.786611 2.939903 40 42 41
-0.453383 -0.778707 2.910364 40 42 41
-0.442750 -0.779124 2.911921 39 41 40
-0.426277 -0.769025 2.874176 41 43 42
-0.425591 -0.787621 2.943677 41 43 42
-0.413621 -0.785766 2.936744 46 48 47
-0.399719 -0.780040 2.915344 53 55 54
-0.389465 -0.781312 2.920100 49 51 50
-0.386357 -0.797406 2.980251 50 52 51
-0.376284 -0.799653 2.988649 41 43 42
-0.371256 -0.813087 3.038856 42 44 43
-0.362229 -0.818333 3.058464 44 46 45
-0.350403 -0.817393 3.054948 39 41 41
-0.332313 -0.801284 2.994742 41 43 43
-0.321115 -0.801249 2.994613 45 47 44
-0.298856 -0.772618 2.887607 40 42 39
-0.288216 -0.773006 2.889055 43 45 42
-0.271358 -0.756099 2.825866 43 45 42
-0.258978 -0.750803 2.806075 42 44 41
-0.248497 -0.750801 2.806064 40 42 39
-0.237040 -0.747717 2.794541 43 45 43
-0.226209 -0.746418 2.789685 39 41 40
-0.216457 -0.748723 2.798299 41 43 36
-0.204181 -0.742088 2.773503 34 36 30
-0.191993 -0.735086 2.747331 47 49 43
-0.181683 -0.734884 2.746579 55 57 52
-0.178333 -0.764495 2.857248 69 72 66
-0.161422 -0.736043 2.750907 52 53 48
-0.079247 -0.736189 2.751454 59 60 55
-0.067277 -0.718112 2.683893 60 61 56
-0.056937 -0.714142 2.669056 63 65 59
-0.036962 -0.713389 2.666241 67 69 63
-0.027015 -0.713677 2.667319 71 73 66
-0.017720 -0.741593 2.771650 72 74 67
-0.007369 -0.741586 2.771626 74 76 69
0.002998 -0.745476 2.786166 72 74 67
0.013314 -0.740519 2.767638 70 72 66
0.024247 -0.759202 2.837464 69 71 65
0.035749 -0.778900 2.911084 73 75 69
0.046531 -0.777394 2.905456 74 76 70
0.057576 -0.780023 2.915280 75 77 71
0.068406 -0.779363 2.912813 80 82 76
0.078594 -0.772577 2.887451 80 82 77
0.089446 -0.773166 2.889652 81 83 78
0.100033 -0.771590 2.883763 83 85 80
0.111287 -0.774959 2.896356 84 86 81
0.122106 -0.774968 2.896389 87 89 84
0.134007 -0.781288 2.920010 88 90 84
0.144889 -0.781162 2.919539 87 89 85
0.154937 -0.776870 2.903496 88 90 88
0.165706 -0.776519 2.902186 91 93 90
0.177953 -0.782714 2.925339 93 95 92
0.190234 -0.788333 2.946339 93 95 92
0.201058 -0.787627 2.943700 92 94 91
0.213699 -0.793747 2.966573 95 97 94
0.224768 -0.793710 2.966434 95 97 94
0.232283 -0.781716 2.921609 93 95 92
0.243241 -0.781865 2.922165 96 98 95
0.249418 -0.767296 2.867717 97 99 96
0.257983 -0.760969 2.844069 98 100 97
0.268592 -0.760931 2.843924 98 100 97
0.279437 -0.761542 2.846211 99 101 98
0.290079 -0.761574 2.846328 97 99 96
0.300873 -0.761987 2.847874 97 99 96
0.311504 -0.761977 2.847835 97 99 96
0.322156 -0.762015 2.847977 97 99 99
0.330413 -0.756567 2.827615 97 99 98
0.340877 -0.756351 2.826810 97 99 98
0.349624 -0.752456 2.812252 99 101 100
0.359733 -0.751634 2.809178 96 98 97
0.366153 -0.743368 2.778284 97 99 98
0.376801 -0.743905 2.780291 99 101 100
0.386321 -0.742244 2.774085 98 100 99
0.392948 -0.735259 2.747977 100 102 101
0.402958 -0.734798 2.746258 99 101 100
0.409952 -0.728996 2.724571 99 101 100
0.419858 -0.728529 2.722827 99 101 100
0.426671 -0.722843 2.701576 101 103 102
0.436513 -0.722433 2.700044 100 102 101
0.443245 -0.717011 2.679779 100 102 101
0.452450 -0.715740 2.675027 100 102 101
0.462439 -0.715738 2.675022 100 102 101
0.483128 -0.731946 2.735597 101 103 103
0.492911 -0.731303 2.733195 98 100 96
0.512729 -0.745272 2.785403 101 103 100
0.523154 -0.745304 2.785521 99 101 98
0.535766 -0.748389 2.797051 100 102 99
0.535484 -0.733690 2.742116 97 99 96
0.544401 -0.731910 2.735462 103 105 102
0.556093 -0.733858 2.742741 99 101 98
0.565832 -0.733204 2.740299 103 105 102
0.577948 -0.735600 2.749252 102 104 101
0.588248 -0.735640 2.749402 102 104 101
0.596828 -0.733565 2.741647 107 109 106
0.597119 -0.721544 2.696720 107 109 106
0.607843 -0.722319 2.699617 107 109 106
0.595528 -0.696137 2.601764 107 109 106
0.605296 -0.696196 2.601984 105 107 104
0.611036 -0.691694 2.585158 104 106 103
0.620786 -0.691800 2.585554 107 109 106
0.626710 -0.687704 2.570245 105 107 104
0.633851 -0.685048 2.560318 104 106 103
0.643345 -0.684975 2.560047 104 106 103
0.653063 -0.685140 2.560661 105 107 104
0.662620 -0.685133 2.560637 106 108 105
0.670816 -0.683740 2.555429 106 108 105
0.680359 -0.683738 2.555424 106 108 105
0.688922 -0.682767 2.551794 107 109 106
0.694630 -0.679030 2.537828 107 109 106
0.704064 -0.678988 2.537668 105 107 104
0.711293 -0.676848 2.529671 105 107 104
0.720750 -0.676857 2.529705 106 108 105
0.726985 -0.673879 2.518575 108 110 106
0.736375 -0.673864 2.518520 107 109 107
0.745206 -0.673344 2.516577 107 109 109
0.751422 -0.670504 2.505963 107 109 107
0.760822 -0.670541 2.506099 108 110 106
0.767599 -0.668292 2.497694 107 109 106
0.776995 -0.668351 2.497913 107 109 106
0.782242 -0.664881 2.484946 107 109 106
0.791530 -0.664888 2.484971 106 108 105
0.797795 -0.662383 2.475611 110 112 109
0.810021 -0.664830 2.484754 108 110 107
0.818939 -0.664536 2.483657 107 109 106
0.825814 -0.662610 2.476457 111 113 110
0.835379 -0.662860 2.477393 110 112 109
0.841736 -0.660588 2.468901 108 110 107
0.851088 -0.660690 2.469282 111 113 110
0.849981 -0.652758 2.439636 111 113 110
0.852329 -0.647619 2.420430 106 108 105
0.861483 -0.647705 2.420751 107 109 106
0.866065 -0.644387 2.408352 107 109 106
0.875103 -0.644419 2.408471 110 112 109
0.878168 -0.640097 2.392318 108 110 107
0.887088 -0.640086 2.392278 108 110 107
0.881397 -0.629638 2.353229 110 112 109
0.881152 -0.623249 2.329350 108 110 107
0.889879 -0.623268 2.329422 108 110 107
0.895555 -0.621171 2.321582 110 112 109
0.904177 -0.621138 2.321459 108 110 107
0.913645 -0.621680 2.323487 108 110 107
0.922345 -0.621696 2.323545 107 109 106
0.926628 -0.618761 2.312576 107 109 106
0.924466 -0.611617 2.285876 106 108 105
0.932945 -0.611579 2.285732 107 109 106
0.931112 -0.604842 2.260556 108 110 107
0.939567 -0.604851 2.260588 107 109 106
0.932306 -0.594831 2.223140 107 109 106
0.940565 -0.594804 2.223038 107 109 106
0.938200 -0.588117 2.198045 105 107 104
0.935004 -0.581029 2.171556 106 108 105
0.943117 -0.581031 2.171563 107 109 107
0.945015 -0.577236 2.157380 107 109 106
0.953025 -0.577208 2.157275 107 109 104
0.940547 -0.564875 2.111180 104 106 101
0.948975 -0.565199 2.112391 105 107 102
0.854004 -0.426991 1.595849 58 38 32
0.859764 -0.426892 1.595478 59 40 33
0.853700 -0.420964 1.573322 56 40 31
0.859214 -0.420786 1.572658 54 38 30
0.867758 -0.422085 1.577514 51 39 29
0.869519 -0.420089 1.570055 49 36 27
0.877160 -0.420942 1.573243 53 44 36
0.862852 -0.405919 1.517093 144 134 124
0.669916 -0.280196 1.047213 255 254 251
0.673835 -0.280199 1.047225 254 252 237
0.675055 -0.279087 1.043068 255 255 243
0.677453 -0.278472 1.040768 255 255 241
0.679474 -0.277709 1.037917 255 255 248
0.683043 -0.277584 1.037449 254 246 221
0.684489 -0.276603 1.033783 255 249 226
0.681261 -0.273754 1.023135 244 236 210
0.685580 -0.273953 1.023879 237 229 206
0.656486 -0.242074 0.904735 194 186 119
0.659742 -0.242029 0.904567 195 185 114
0.654718 -0.238962 0.893105 194 183 112
0.658438 -0.239102 0.893627 194 183 113
0.655655 -0.236891 0.885362 193 183 112
0.656364 -0.235957 0.881873 192 182 112
0.659651 -0.235954 0.881863 193 183 113
0.661559 -0.235461 0.880020 192 182 112
0.665067 -0.235540 0.880313 192 182 112
0.665461 -0.234520 0.876502 192 182 112
0.667815 -0.234198 0.875297 184 173 107
0.671731 -0.234423 0.876140 181 170 103
0.676583 -0.234972 0.878191 182 171 104
0.680032 -0.235030 0.878409 183 172 105
0.685381 -0.235742 0.881069 187 176 109
0.688575 -0.235709 0.880945 185 174 107
0.685158 -0.233424 0.872405 184 173 107
0.689055 -0.233640 0.873214 183 173 106
0.683898 -0.230800 0.862597 179 167 102
0.663381 -0.222826 0.832796 175 163 98
0.673090 -0.221925 0.829430 147 136 78
0.675357 -0.221653 0.828411 141 129 71
0.678097 -0.221537 0.827978 136 122 68
0.679074 -0.220849 0.825407 137 124 68
0.682170 -0.220853 0.825423 137 124 74
0.686046 -0.221109 0.826378 138 124 71
0.689103 -0.221099 0.826343 136 124 74
0.687380 -0.219563 0.820602 137 125 73
0.690313 -0.219521 0.820446 134 121 76
0.694173 -0.219773 0.821388 135 121 78
0.695965 -0.219371 0.819885 135 121 77
0.699811 -0.219617 0.820804 126 113 68
0.702384 -0.219463 0.820229 119 106 62
0.708689 -0.220472 0.823998 122 109 69
0.703968 -0.218056 0.814970 128 115 74
0.707259 -0.218133 0.815255 126 113 72
0.708094 -0.217454 0.812719 128 115 74
0.708567 -0.216671 0.809791 129 115 73
0.710644 -0.216382 0.808713 131 118 75
0.715123 -0.216824 0.810366 130 115 77
0.718267 -0.216860 0.810498 129 114 77
0.709169 -0.213214 0.796874 129 114 75
0.712663 -0.213370 0.797454 130 115 76
0.715198 -0.213237 0.796959 131 116 79
0.714717 -0.212211 0.793123 130 115 80
0.717751 -0.212232 0.793202 130 115 80
0.723281 -0.212988 0.796028 128 113 77
0.727059 -0.213224 0.796910 126 111 75
0.727527 -0.212492 0.794172 124 109 72
0.730940 -0.212622 0.794659 128 113 75
0.732849 -0.212315 0.793512 127 112 77
0.737903 -0.212918 0.795766 125 109 74
0.740498 -0.212810 0.795361 121 107 73
0.743666 -0.212866 0.795573 123 109 76
0.746883 -0.212936 0.795835 124 110 77
0.747700 -0.212324 0.793547 122 107 73
0.750844 -0.212375 0.793738 117 103 70
0.760510 -0.214263 0.800794 106 97 66
0.769728 -0.215168 0.804175 97 87 57
0.715987 -0.168573 0.630031 34 32 27
0.718345 -0.168575 0.630036 33 33 27
0.717788 -0.167894 0.627492 34 31 27
0.720110 -0.167889 0.627474 35 31 28
0.719400 -0.167179 0.624821 36 31 28
0.721804 -0.167196 0.624882 32 28 25
0.718827 -0.165970 0.620300 31 27 24
0.717297 -0.165084 0.616991 29 25 22
0.719618 -0.165088 0.617005 27 23 19
0.716809 -0.163919 0.612635 26 22 19
0.719102 -0.163920 0.612639 28 23 21
0.722035 -0.164067 0.613187 27 21 19
0.724292 -0.164059 0.613159 25 23 19
0.727016 -0.164157 0.613525 23 23 18
0.730195 -0.164357 0.614271 21 19 17
0.727960 -0.163341 0.610474 13 10 11
0.740574 -0.160637 0.600368 205 204 201
-3.908234 -0.860855 3.262929 137 146 147
-3.324651 -0.753455 2.855847 246 249 245
-3.320410 -0.754915 2.861383 253 254 248
-3.299574 -0.752601 2.852609 252 254 250
-0.620169 -0.185863 0.704483 24 23 24
-0.610848 -0.183850 0.696852 24 24 24
-0.608252 -0.183852 0.696860 24 24 24
-0.608287 -0.184652 0.699894 24 24 24
-0.605817 -0.184696 0.700060 26 26 26
-0.610920 -0.187059 0.709017 23 23 23
-0.608462 -0.187118 0.709239 26 26 26
-0.618728 -0.191106 0.724358 24 24 24
-0.604793 -0.187623 0.711153 24 24 24
-0.602326 -0.187682 0.711377 25 25 25
-0.596919 -0.186821 0.708114 25 25 26
-0.594093 -0.186764 0.707898 24 24 22
-2.444617 -0.804302 3.048575 161 164 154
-2.450905 -0.810144 3.070718 154 157 146
-2.437074 -0.809359 3.067744 148 151 139
-2.400370 -0.800935 3.035814 148 152 140
-2.388812 -0.800861 3.035534 149 154 140
-2.394766 -0.806686 3.057611 146 150 137
-2.385530 -0.807425 3.060411 145 149 134
-2.335750 -0.794382 3.010975 137 141 127
-2.335949 -0.798293 3.025800 136 140 126
-2.302900 -0.790825 2.997492 142 146 132
-2.292981 -0.791265 2.999160 139 143 129
-2.274173 -0.788627 2.989162 139 143 129
-2.286590 -0.796844 3.020308 138 142 127
-2.284422 -0.800036 3.032404 139 143 128
-2.257399 -0.794511 3.011462 141 145 130
-2.255255 -0.797730 3.023667 141 145 130
-2.237545 -0.795449 3.015019 142 146 131
-2.268367 -0.810485 3.072011 140 143 131
-2.237861 -0.803650 3.046104 142 146 132
-2.221275 -0.801769 3.038976 149 153 140
-2.221932 -0.806126 3.055487 153 156 143
-2.196077 -0.800859 3.035523 160 164 150
-2.143641 -0.785793 2.978418 164 168 154
-2.136234 -0.787162 2.983610 170 174 158
-2.110798 -0.781868 2.963542 169 174 157
-2.105278 -0.783934 2.971373 171 175 161
-2.045787 -0.765818 2.902708 169 172 160
-2.051291 -0.784507 2.973547 64 65 62
-2.034566 -0.782346 2.965356 72 74 69
-2.010670 -0.777389 2.946567 75 77 72
-2.024332 -0.786978 2.982913 70 72 67
-2.009788 -0.785648 2.977870 69 71 66
-1.984985 -0.780270 2.957485 70 72 66
-2.002984 -0.791751 3.001001 72 74 72
-1.991045 -0.791460 2.999901 66 68 66
-1.948649 -0.778991 2.952637 65 68 65
-1.935427 -0.778109 2.949293 61 63 60
-1.895082 -0.766249 2.904341 58 60 57
-1.884761 -0.766463 2.905153 56 58 55
-1.866548 -0.763451 2.893737 57 59 56
-1.834403 -0.754673 2.860465 57 59 56
-1.820383 -0.753292 2.855230 52 54 51
-1.787900 -0.744210 2.820806 49 51 48
-1.779438 -0.745078 2.824095 47 49 46
-1.738594 -0.732317 2.775726 49 51 48
-1.727474 -0.731997 2.774515 47 49 46
-1.747397 -0.744908 2.823450 45 47 44
-1.756846 -0.753483 2.855952 40 42 39
-1.734417 -0.748407 2.836715 41 43 40
-1.758710 -0.763553 2.894124 38 40 37
-1.730765 -0.756067 2.865750 47 49 46
-1.684656 -0.740504 2.806761 49 51 47
-1.676512 -0.741539 2.810682 49 51 49
-1.620532 -0.721294 2.733948 51 53 52
-0.852031 -0.520166 1.971604 91 102 146
-0.844642 -0.520150 1.971545 91 102 146
-0.823624 -0.511667 1.939391 92 103 146
-0.816591 -0.511799 1.939890 91 102 145
-0.773462 -0.489107 1.853881 91 103 146
-0.764778 -0.487984 1.849623 93 104 149
-0.735727 -0.473726 1.795582 93 104 147
-0.719757 -0.467707 1.772765 93 104 146
-0.712673 -0.467403 1.771614 95 106 148
-0.949941 -0.686773 2.603102 171 178 184
-0.940377 -0.686889 2.603541 174 183 159
-0.928181 -0.685064 2.596622 174 183 161
-0.907918 -0.677184 2.566754 174 182 158
-0.896778 -0.676013 2.562315 169 178 153
-0.889198 -0.677529 2.568061 172 177 157
-0.880382 -0.678126 2.570324 171 176 157
-0.875545 -0.681834 2.584380 170 175 155
-0.858182 -0.675762 2.561365 172 176 156
-0.869613 -0.692482 2.624741 171 175 158
-0.889070 -0.750263 2.843748 47 48 47
-0.883582 -0.754646 2.860363 47 48 44
-0.887272 -0.767072 2.907460 56 58 53
-0.863911 -0.756130 2.865985 62 64 59
-0.859573 -0.761771 2.887368 68 69 64
-0.818028 -0.734163 2.782724 69 71 66
-0.815519 -0.741329 2.809886 67 69 62
-0.792549 -0.729841 2.766341 64 66 60
-0.786563 -0.733895 2.781710 56 58 56
-0.777553 -0.735199 2.786650 52 54 51
-0.755941 -0.724461 2.745951 58 60 57
-0.747878 -0.726591 2.754023 55 57 54
-0.727655 -0.716802 2.716919 60 62 62
-0.716738 -0.716032 2.714003 59 61 61
-0.709872 -0.719346 2.726563 58 60 60
-0.702512 -0.722248 2.737562 53 56 56
-0.691636 -0.721567 2.734983 57 56 56
-0.686117 -0.726540 2.753832 52 52 52
-0.675024 -0.725671 2.750538 54 54 54
-0.659428 -0.719860 2.728511 58 58 58
-0.646242 -0.716539 2.715922 56 56 56
-0.625303 -0.704377 2.669825 49 49 49
-0.615770 -0.704879 2.671727 50 50 50
-0.603294 -0.701972 2.660709 49 49 49
-0.603347 -0.713791 2.705507 47 47 47
-0.593314 -0.713876 2.705831 46 46 46
-0.593569 -0.726559 2.753902 46 46 46
-0.583516 -0.726847 2.754995 42 42 42
-0.585466 -0.742367 2.813819 48 48 48
-0.575149 -0.742614 2.814757 51 51 51
-0.565872 -0.744239 2.820915 51 51 51
-0.554338 -0.742900 2.815841 49 49 48
-0.543942 -0.743065 2.816464 49 49 50
-0.532638 -0.741971 2.812318 47 46 49
-0.521455 -0.741005 2.808658 50 51 51
-0.511025 -0.741091 2.808985 54 56 55
-0.500468 -0.740993 2.808613 54 56 55
-0.493457 -0.746253 2.828549 55 57 56
-0.484378 -0.748548 2.837248 57 59 58
-0.473469 -0.748054 2.835376 58 60 59
-0.466661 -0.754165 2.858539 61 63 62
-0.456124 -0.754394 2.859407 63 65 64
-0.445645 -0.754734 2.860695 64 66 65
-0.435646 -0.755921 2.865196 66 68 67
-0.423712 -0.753729 2.856885 64 66 65
-0.415270 -0.757793 2.872291 69 71 70
-0.404506 -0.757724 2.872030 73 75 74
-0.394825 -0.759736 2.879656 68 70 69
-0.384724 -0.761029 2.884555 67 69 68
-0.381478 -0.776346 2.942613 57 59 58
-0.377692 -0.791443 2.999836 45 47 46
-0.373065 -0.805644 3.053663 41 43 42
-0.361437 -0.805146 3.051775 44 46 45
-0.350881 -0.807082 3.059114 44 46 45
-0.332494 -0.790529 2.996370 41 43 43
-0.321468 -0.790934 2.997907 43 45 41
-0.299217 -0.762755 2.891097 44 46 43
-0.288137 -0.762007 2.888263 43 45 42
-0.271362 -0.745555 2.825904 43 45 42
-0.258846 -0.739946 2.804643 42 44 41
-0.248451 -0.740184 2.805545 45 47 44
-0.236842 -0.736665 2.792210 44 46 43
-0.227098 -0.738892 2.800650 46 48 45
-0.215567 -0.735237 2.786793 43 45 43
-0.205545 -0.736621 2.792042 43 45 43
-0.193983 -0.732338 2.775808 59 61 59
-0.180878 -0.721416 2.734410 58 60 58
-0.174747 -0.738666 2.799793 64 67 64
-0.163835 -0.736620 2.792038 62 64 62
-0.153384 -0.736507 2.791609 61 63 61
-0.145467 -0.749430 2.840591 66 68 66
-0.135173 -0.751181 2.847228 69 71 69
-0.121654 -0.733774 2.781251 68 70 67
-0.109735 -0.723679 2.742985 66 68 66
-0.099712 -0.725287 2.749080 63 66 63
-0.088723 -0.719433 2.726894 67 69 67
-0.078454 -0.718655 2.723943 64 66 65
-0.067828 -0.713883 2.705857 68 70 69
-0.057616 -0.712566 2.700866 68 70 69
-0.047365 -0.710110 2.691555 68 70 69
-0.037843 -0.720201 2.729805 69 71 70
-0.027701 -0.721576 2.735016 71 73 71
-0.017816 -0.735186 2.786603 73 75 73
-0.007408 -0.735159 2.786498 72 74 72
0.002985 -0.731781 2.773694 73 75 74
0.013340 -0.731578 2.772925 74 76 74
0.024117 -0.744571 2.822175 76 78 77
0.035420 -0.760970 2.884333 78 80 76
0.046196 -0.761038 2.884588 80 82 76
0.057595 -0.769398 2.916276 79 81 76
0.068449 -0.768976 2.914677 81 83 77
0.078736 -0.763167 2.892661 80 82 77
0.089570 -0.763435 2.893675 81 83 78
0.100024 -0.760749 2.883494 83 85 80
0.111272 -0.764037 2.895959 85 87 82
0.122080 -0.763992 2.895786 86 88 83
0.134210 -0.771549 2.924429 88 90 85
0.145122 -0.771496 2.924228 89 91 87
0.155004 -0.766357 2.904751 88 90 87
0.165794 -0.766089 2.903736 90 92 89
0.177869 -0.771427 2.923969 92 94 91
0.190265 -0.777455 2.946815 93 95 92
0.201282 -0.777499 2.946983 94 96 93
0.213650 -0.782486 2.965887 93 95 92
0.224734 -0.782513 2.965987 94 96 93
0.232336 -0.770982 2.922281 94 96 93
0.243288 -0.771101 2.922734 93 95 92
0.249525 -0.756909 2.868940 93 95 92
0.257966 -0.750298 2.843881 96 98 95
0.268574 -0.750260 2.843738 97 99 96
0.279454 -0.750957 2.846378 96 98 95
0.290090 -0.750971 2.846433 96 98 95
0.300851 -0.751297 2.847670 95 97 94
0.311442 -0.751190 2.847264 94 96 93
0.322187 -0.751451 2.848250 96 98 98
0.330345 -0.745852 2.827030 96 98 97
0.340941 -0.745934 2.827341 96 98 97
0.349414 -0.741507 2.810560 96 98 97
0.359792 -0.741263 2.809637 95 97 96
0.366023 -0.732731 2.777297 94 96 95
0.376443 -0.732823 2.777646 96 98 97
0.386163 -0.731584 2.772949 95 97 96
0.392725 -0.724585 2.746420 97 99 98
0.402881 -0.724403 2.745730 98 100 99
0.409844 -0.718631 2.723854 98 100 99
0.419992 -0.718589 2.723692 97 99 98
0.426019 -0.711665 2.697449 97 99 98
0.436623 -0.712528 2.700721 99 101 100
0.442831 -0.706342 2.677275 98 100 99
0.452444 -0.705741 2.674996 99 101 100
0.462328 -0.705578 2.674379 100 102 101
0.482607 -0.720952 2.732649 96 98 98
0.491171 -0.718549 2.723544 96 98 94
0.512740 -0.734886 2.785464 98 100 97
0.524265 -0.736461 2.791436 103 105 102
0.535612 -0.737731 2.796247 99 101 98
0.533902 -0.721312 2.734016 101 103 100
0.543786 -0.720879 2.732373 105 107 104
0.555987 -0.723476 2.742217 104 106 103
0.565426 -0.722451 2.738332 103 105 102
0.579001 -0.726653 2.754258 104 106 103
0.588820 -0.726077 2.752075 106 108 105
0.597051 -0.723595 2.742669 104 106 103
0.597492 -0.711916 2.698400 104 106 103
0.607911 -0.712316 2.699916 104 106 103
0.595549 -0.686445 2.601858 106 108 105
0.605141 -0.686303 2.601320 107 109 106
0.610997 -0.681996 2.584993 105 107 104
0.620717 -0.682067 2.585264 105 107 104
0.626709 -0.678104 2.570240 105 107 104
0.633819 -0.675451 2.560187 103 105 102
0.643361 -0.675430 2.560108 105 107 104
0.653057 -0.675571 2.560639 107 109 106
0.662625 -0.675575 2.560655 106 108 105
0.670813 -0.674193 2.555418 105 107 104
0.680381 -0.674217 2.555509 103 105 102
0.688924 -0.673238 2.551800 106 108 105
0.694611 -0.669534 2.537757 107 109 106
0.704108 -0.669552 2.537827 105 107 104
0.711302 -0.667409 2.529703 105 107 104
0.720734 -0.667395 2.529650 107 109 106
0.726948 -0.664439 2.518446 107 109 105
0.736390 -0.664471 2.518570 105 107 105
0.745219 -0.663957 2.516622 106 108 108
0.751427 -0.661150 2.505982 107 109 108
0.760767 -0.661133 2.505917 109 111 107
0.767590 -0.658956 2.497665 109 111 108
0.776950 -0.658984 2.497770 108 110 107
0.782271 -0.655625 2.485038 109 111 108
0.791543 -0.655618 2.485011 108 110 107
0.797741 -0.653094 2.475445 109 111 108
0.809961 -0.655501 2.484569 108 110 107
0.819348 -0.655588 2.484897 111 113 110
0.826073 -0.653565 2.477233 109 111 108
0.835141 -0.653422 2.476690 108 110 107
0.841708 -0.651346 2.468821 108 110 107
0.850935 -0.651351 2.468838 110 112 109
0.849974 -0.643641 2.439615 110 112 109
0.852472 -0.638687 2.420837 107 109 106
0.861544 -0.638709 2.420923 108 110 107
0.866125 -0.635437 2.408519 110 112 109
0.875103 -0.635424 2.408471 106 108 105
0.878188 -0.631176 2.392371 108 110 107
0.887168 -0.631209 2.392494 110 112 109
0.881262 -0.620754 2.352868 109 111 108
0.881034 -0.614467 2.329038 107 109 106
0.889900 -0.614583 2.329476 109 111 108
0.895704 -0.612603 2.321970 109 111 108
0.904238 -0.612509 2.321615 108 110 107
0.913627 -0.612991 2.323442 107 109 106
0.922356 -0.613025 2.323571 108 110 107
0.926657 -0.610144 2.312649 107 109 106
0.924387 -0.603028 2.285678 108 110 107
0.932971 -0.603059 2.285796 107 109 106
0.931178 -0.596442 2.260717 108 110 107
0.939656 -0.596465 2.260801 107 109 106
0.932298 -0.586523 2.223121 107 109 106
0.940668 -0.586565 2.223280 108 110 107
0.938189 -0.579901 2.198020 106 108 105
0.934788 -0.572787 2.171054 106 108 105
0.943008 -0.572855 2.171312 107 109 107
0.944794 -0.569046 2.156877 107 109 106
0.952841 -0.569041 2.156857 107 109 103
0.940376 -0.556889 2.110798 106 109 104
0.948707 -0.557152 2.111795 107 109 104
0.853814 -0.420937 1.595494 59 39 32
0.859487 -0.420797 1.594964 59 39 32
0.853238 -0.414863 1.572470 58 40 33
0.859529 -0.415065 1.573235 55 38 31
0.867346 -0.415996 1.576765 51 37 30
0.869708 -0.414316 1.570396 47 33 25
0.877051 -0.415015 1.573047 54 45 36
0.861757 -0.399745 1.515168 141 136 124
0.673862 -0.276299 1.047268 255 255 252
0.674319 -0.274891 1.041931 255 255 243
0.678584 -0.275043 1.042505 255 255 234
0.679286 -0.273757 1.037630 255 255 238
0.682951 -0.273672 1.037310 255 254 231
0.684359 -0.272690 1.033585 253 247 228
0.680675 -0.269700 1.022255 251 247 214
0.687402 -0.270847 1.026601 251 249 217
0.679171 -0.266119 1.008682 248 239 205
0.656482 -0.238694 0.904729 196 187 123
0.659721 -0.238643 0.904538 196 185 119
0.654980 -0.235721 0.893462 195 183 117
0.658438 -0.235765 0.893627 195 183 118
0.655652 -0.233583 0.885358 195 183 117
