ply
format ascii 1.0
element vertex 1209
property float x
property float y
property float z
property uchar red
property uchar green
property uchar blue
end_header
-1.455049 -1.021112 2.829101 49 50 52
-1.470870 -1.039764 2.880780 52 52 54
-1.459911 -1.039622 2.880386 52 51 53
-1.472170 -1.056134 2.926134 48 53 55
-1.460923 -1.055904 2.925497 48 53 55
-1.446090 -1.053059 2.917613 49 53 56
-1.436152 -1.053762 2.919562 50 54 56
-1.431077 -1.058071 2.931502 53 57 59
-1.408449 -1.049370 2.907393 58 62 65
-1.386928 -1.041363 2.885211 65 69 72
-1.375169 -1.040619 2.883148 69 73 76
-1.366768 -1.042424 2.888149 67 71 74
-1.363150 -1.047935 2.903419 65 69 72
-1.358608 -1.052818 2.916948 59 63 66
-1.344497 -1.050305 2.909983 56 60 62
-1.345665 -1.059784 2.936246 51 56 58
-1.322439 -1.050049 2.909276 58 63 62
-1.328833 -1.063867 2.947560 56 60 60
-1.322251 -1.067440 2.957459 46 50 50
-1.314654 -1.070248 2.965237 43 48 48
-1.300618 -1.067816 2.958499 44 47 49
-1.297812 -1.074641 2.977411 45 48 51
-1.290677 -1.077970 2.986633 54 55 54
-1.281525 -1.079656 2.991305 57 58 58
-1.276625 -1.084987 3.006074 55 57 54
-1.274336 -1.092650 3.027307 48 50 47
-1.350240 -1.168096 3.236338 39 42 36
-1.332901 -1.163511 3.223635 34 38 30
-1.353105 -1.191914 3.302327 37 38 31
-1.351848 -1.201761 3.329608 36 37 29
-1.342535 -1.204562 3.337369 31 32 25
-1.339439 -1.213046 3.360875 30 30 24
-1.319648 -1.206427 3.342538 32 33 25
-1.365321 -1.260103 3.491251 45 44 39
-1.359176 -1.278857 3.543212 117 123 81
-1.279583 -1.252754 3.470892 109 111 60
-1.289768 -1.275649 3.534323 109 112 61
-1.263176 -1.262267 3.497247 105 103 49
-1.240986 -1.253049 3.471709 110 109 57
-1.058278 -1.140031 3.158581 129 133 68
-1.120093 -1.248368 3.458738 87 85 37
-1.065346 -1.215384 3.367352 87 86 35
-1.004915 -1.160137 3.214286 72 71 18
-1.008087 -1.177869 3.263415 77 76 24
-0.966336 -1.142904 3.166540 72 69 24
-0.965972 -1.201280 3.328277 156 156 92
-0.986544 -1.242856 3.443468 159 163 95
-0.951624 -1.214698 3.365454 152 159 84
-1.014444 -1.367112 3.787732 60 55 48
-1.010363 -1.380867 3.825842 64 62 47
-0.990554 -1.373214 3.804638 68 71 60
-0.974599 -1.370759 3.797837 72 74 62
-0.953964 -1.361552 3.772327 86 88 75
-0.929313 -1.346250 3.729932 92 93 80
-0.912561 -1.342100 3.718434 102 107 93
-0.878574 -1.312082 3.635267 101 105 91
-0.868057 -1.316724 3.648128 104 105 96
-0.821674 -1.266242 3.508261 106 106 96
-0.810467 -1.269210 3.516484 103 111 98
-0.783094 -1.246543 3.453683 103 110 98
-0.754639 -1.221366 3.383926 105 111 99
-0.742532 -1.222240 3.386348 102 108 96
-0.729052 -1.220844 3.382481 103 109 97
-0.716785 -1.221467 3.384207 102 108 96
-0.703235 -1.219887 3.379831 103 109 97
-0.691025 -1.220616 3.381849 102 108 96
-0.693726 -1.248202 3.458279 103 109 99
-0.676678 -1.240625 3.437286 102 108 98
-0.663833 -1.240611 3.437247 103 109 99
-0.631075 -1.202648 3.332067 104 110 100
-0.618797 -1.202970 3.332958 104 110 100
-0.583987 -1.158605 3.210040 106 112 102
-0.571942 -1.158490 3.209723 106 112 102
-0.553909 -1.145983 3.175071 106 112 102
-0.535861 -1.132896 3.138812 106 112 102
-0.524282 -1.133207 3.139673 106 112 102
-0.510354 -1.128337 3.126180 106 112 102
-0.498779 -1.128566 3.126814 105 112 101
-0.476032 -1.102918 3.055754 106 112 102
-0.464525 -1.102692 3.055130 107 113 102
-0.449697 -1.094375 3.032085 108 114 104
-0.425247 -1.061608 2.941300 107 114 104
-0.414324 -1.061766 2.941738 107 113 103
-0.399228 -1.050949 2.911769 107 113 102
-0.388354 -1.050951 2.911775 107 113 104
-0.373639 -1.040257 2.882145 108 113 107
-0.362891 -1.040305 2.882278 107 113 106
-0.355762 -1.051046 2.912036 105 113 105
-0.345082 -1.051642 2.913688 106 113 105
-0.334184 -1.051591 2.913546 106 113 105
-0.329738 -1.072520 2.971534 106 113 105
-0.318618 -1.072445 2.971326 106 113 105
-0.302268 -1.054126 2.920572 105 112 104
-0.291443 -1.054427 2.921406 105 112 104
-0.278430 -1.046522 2.899504 105 112 104
-0.260949 -1.020508 2.827429 103 110 102
-0.250442 -1.020722 2.828020 103 110 102
-0.249719 -1.062589 2.944017 103 110 102
-0.238769 -1.062792 2.944581 102 109 101
0.058291 -0.606517 1.680421 255 255 253
0.064488 -0.605775 1.678365 255 255 253
0.070759 -0.605800 1.678436 255 255 251
0.078017 -0.613583 1.699998 255 255 251
0.084360 -0.613537 1.699872 254 255 251
0.090735 -0.613712 1.700356 254 255 251
0.097081 -0.613688 1.700289 254 255 250
0.102481 -0.608053 1.684676 254 255 251
0.109017 -0.609416 1.688453 255 255 252
0.115343 -0.609522 1.688748 254 255 251
0.122283 -0.612694 1.697535 253 255 249
0.128616 -0.612663 1.697451 253 255 249
0.137803 -0.625587 1.733256 250 252 246
0.143254 -0.621157 1.720982 245 247 241
0.147567 -0.612382 1.696671 241 244 238
0.154008 -0.612797 1.697820 241 243 238
0.162741 -0.621940 1.723152 251 252 247
0.169724 -0.623952 1.728728 255 255 252
0.175635 -0.622020 1.723375 255 255 252
0.180089 -0.615249 1.704614 255 255 252
0.186451 -0.615233 1.704569 255 255 252
0.187142 -0.597125 1.654399 255 255 252
0.191866 -0.592634 1.641956 255 255 252
0.197996 -0.592626 1.641936 255 255 252
0.204356 -0.593288 1.643769 255 255 252
0.210511 -0.593331 1.643888 253 255 252
0.271545 -0.492469 1.364438 125 155 175
0.346841 -0.555988 1.540426 222 240 227
0.349355 -0.550880 1.526274 234 252 238
0.355037 -0.550853 1.526197 242 255 246
0.359365 -0.548758 1.520394 243 255 249
0.365568 -0.549546 1.522578 246 255 246
0.379087 -0.561141 1.554702 248 255 245
0.390549 -0.569386 1.577546 250 255 244
0.396519 -0.569499 1.577860 252 255 242
0.413643 -0.585393 1.621894 252 255 244
0.419715 -0.585414 1.621953 251 255 245
0.422083 -0.580341 1.607897 251 255 243
0.428099 -0.580356 1.607939 253 255 244
0.434718 -0.581176 1.610211 253 255 243
0.439300 -0.579288 1.604980 252 255 238
0.443975 -0.577572 1.600227 252 255 238
0.451780 -0.579919 1.606728 252 255 238
0.455382 -0.576880 1.598309 248 251 234
0.482027 -0.602734 1.669940 231 234 212
0.484820 -0.598483 1.658163 211 216 193
0.479389 -0.584315 1.618908 209 213 185
0.490930 -0.590929 1.637234 214 217 190
0.499318 -0.593632 1.644721 218 223 190
0.511963 -0.601269 1.665880 220 225 194
0.518371 -0.601485 1.666478 223 226 200
0.529666 -0.607299 1.682587 233 235 210
0.530232 -0.600820 1.664637 235 242 214
0.540926 -0.605834 1.678529 229 236 208
0.578840 -0.606150 1.679404 92 93 92
0.620417 -0.610028 1.690148 95 103 104
0.624842 -0.608191 1.685059 109 124 128
0.532781 -0.458545 1.270448 251 255 254
0.536921 -0.458029 1.269020 249 255 253
0.544685 -0.460587 1.276106 254 255 253
0.546361 -0.457997 1.268930 251 255 252
0.551888 -0.458651 1.270742 251 255 251
0.558251 -0.459984 1.274435 249 254 250
0.560627 -0.458036 1.269039 237 246 225
0.718760 -0.525086 1.454808 240 239 226
0.741046 -0.517877 1.434836 224 222 200
0.744967 -0.516880 1.432073 224 220 192
0.660545 -0.405857 1.124472 215 150 140
0.663618 -0.405170 1.122567 216 141 138
0.668321 -0.405480 1.123425 221 149 145
0.675144 -0.407064 1.127814 236 161 159
0.665011 -0.398468 1.103999 247 177 174
0.669455 -0.398659 1.104528 247 197 193
0.671514 -0.397436 1.101140 255 203 200
0.675518 -0.397373 1.100964 254 209 208
0.679645 -0.397382 1.100989 255 204 203
0.687555 -0.399589 1.107105 255 207 204
0.691770 -0.399635 1.107233 252 204 200
0.697928 -0.400797 1.110452 253 206 202
0.702200 -0.400868 1.110648 254 206 202
0.715249 -0.405919 1.124644 251 206 200
0.716313 -0.404150 1.119741 251 206 200
0.720538 -0.404174 1.119809 254 205 201
0.727118 -0.405511 1.123513 252 204 200
0.731125 -0.405407 1.123223 254 202 198
0.712706 -0.392939 1.088680 253 201 197
0.716457 -0.392766 1.088201 253 201 195
0.700289 -0.381738 1.057645 253 199 192
0.693061 -0.375678 1.040858 251 196 187
0.696935 -0.375671 1.040838 250 194 183
0.700643 -0.375575 1.040571 248 192 180
0.704309 -0.375457 1.040246 247 190 176
0.846639 -0.341936 0.947370 101 97 94
0.861842 -0.346627 0.960367 106 102 98
0.865635 -0.346710 0.960597 115 109 106
0.871396 -0.347576 0.962998 111 104 102
0.870605 -0.345834 0.958170 106 104 99
0.874408 -0.345923 0.958416 98 97 91
0.875827 -0.343670 0.952176 85 82 78
0.876188 -0.342422 0.948716 83 80 75
0.884163 -0.344146 0.953495 87 84 75
0.914013 -0.351518 0.973918 98 96 88
0.909798 -0.348510 0.965585 103 98 92
0.916423 -0.349662 0.968776 99 94 89
0.907400 -0.344858 0.955465 98 93 88
0.898199 -0.340024 0.942072 96 91 87
0.905236 -0.341350 0.945748 94 88 83
0.899555 -0.337890 0.936160 91 85 78
0.907726 -0.339639 0.941006 82 76 70
0.912337 -0.340048 0.942139 73 68 60
0.921380 -0.342099 0.947822 74 68 62
0.916926 -0.339142 0.939630 66 59 51
0.917675 -0.338125 0.936813 63 57 49
0.920510 -0.337882 0.936138 61 54 47
0.928318 -0.339458 0.940506 58 51 45
0.931874 -0.339474 0.940549 58 52 46
0.936208 -0.339772 0.941375 61 55 48
0.939774 -0.339790 0.941426 59 52 46
0.943520 -0.339873 0.941655 59 54 46
0.949498 -0.340756 0.944102 62 56 50
0.953266 -0.340843 0.944342 64 57 50
0.961112 -0.342381 0.948605 68 61 54
0.962665 -0.341675 0.946648 68 61 55
0.971068 -0.343396 0.951417 73 66 61
0.974860 -0.343481 0.951651 86 78 73
0.982019 -0.342260 0.948267 128 123 110
0.990283 -0.342668 0.949399 126 120 110
0.996075 -0.343443 0.951545 124 118 108
0.999606 -0.343435 0.951523 124 115 106
1.071681 -0.358016 0.991921 163 153 95
1.084115 -0.360922 0.999973 159 148 95
1.089446 -0.361451 1.001441 163 151 94
1.097947 -0.363025 1.005801 164 152 96
1.102372 -0.363246 1.006412 167 151 97
1.110958 -0.364831 1.010804 173 157 100
1.115009 -0.364921 1.011054 166 150 98
1.119859 -0.365272 1.012025 165 149 97
1.135859 -0.369244 1.023031 170 154 101
2.596665 -0.824704 2.284931 33 24 18
2.609587 -0.826093 2.288780 29 26 24
2.626655 -0.828781 2.296229 33 29 25
2.634276 -0.828481 2.295397 32 30 28
2.687476 -0.842471 2.334157 33 30 30
2.691941 -0.841142 2.330475 32 30 29
2.686222 -0.836650 2.318029 25 29 31
2.728699 -0.847149 2.347120 23 27 27
2.723289 -0.842763 2.334966 30 29 33
2.763174 -0.852376 2.361601 27 24 29
2.773362 -0.852797 2.362766 23 22 25
2.756956 -0.845063 2.341339 22 24 25
2.762613 -0.844120 2.338726 21 22 22
2.646899 -0.806214 2.233705 19 19 19
2.601122 -0.789782 2.188178 19 18 18
2.617130 -0.792154 2.194748 18 18 18
2.574002 -0.776667 2.151841 17 17 17
2.582089 -0.776683 2.151884 17 17 16
2.617916 -0.785016 2.174972 17 17 18
2.626044 -0.785017 2.174976 17 17 17
2.669572 -0.795569 2.204209 17 17 17
2.708459 -0.804676 2.229442 18 18 18
2.716635 -0.804632 2.229319 19 19 19
2.781235 -0.821248 2.275358 20 20 20
2.787929 -0.820717 2.273886 21 21 21
2.850446 -0.836573 2.317816 22 22 22
2.859454 -0.836676 2.318101 23 23 23
-2.729984 -0.806587 2.258103 210 218 210
-2.723699 -0.807224 2.259885 213 218 211
-2.732377 -0.812313 2.274132 211 216 210
-2.724372 -0.812458 2.274540 210 215 208
-2.707946 -0.810086 2.267898 210 215 208
-2.700842 -0.810496 2.269045 212 217 209
-2.693628 -0.810875 2.270107 211 216 209
-2.680322 -0.809417 2.266026 210 215 208
-2.671290 -0.809245 2.265543 210 215 208
-2.666649 -0.810406 2.268793 210 215 208
-2.657700 -0.810261 2.268387 210 215 208
-2.629298 -0.804165 2.251322 217 219 212
-2.581620 -0.792116 2.217590 215 217 210
-2.572823 -0.791957 2.217145 215 220 213
-2.540545 -0.784546 2.196398 217 223 216
-2.531744 -0.784361 2.195880 219 224 218
-2.488737 -0.773543 2.165593 221 226 220
-2.480989 -0.773649 2.165890 222 226 221
-2.452807 -0.767363 2.148292 223 227 221
-2.413769 -0.757628 2.121038 223 228 221
-2.405035 -0.757372 2.120322 224 229 222
-2.392817 -0.756014 2.116519 224 229 222
-2.384831 -0.755988 2.116447 223 228 221
-2.356667 -0.749544 2.098408 224 229 222
-2.345465 -0.748471 2.095402 227 232 225
-2.291040 -0.733550 2.053631 229 234 227
-2.222250 -0.713915 1.998660 231 236 229
-2.207155 -0.711456 1.991775 238 243 236
-2.197201 -0.710642 1.989497 237 242 235
-2.187875 -0.710027 1.987774 239 244 237
-2.132835 -0.694521 1.944365 240 244 238
-2.125362 -0.694452 1.944173 240 244 238
-2.079364 -0.681752 1.908616 239 244 238
-2.017822 -0.663850 1.858499 237 245 237
-2.011495 -0.664052 1.859066 237 244 237
-2.005841 -0.664479 1.860262 237 244 237
-2.000184 -0.664909 1.861463 236 243 236
-2.009157 -0.670221 1.876335 237 244 237
-2.002452 -0.670322 1.876618 238 245 238
-2.129472 -0.849635 2.378618 226 237 211
-2.115091 -0.847432 2.372451 226 237 210
-2.147685 -0.864111 2.419145 222 233 206
-2.150237 -0.868792 2.432251 218 229 202
-2.158743 -0.875929 2.452232 220 231 203
-2.151253 -0.876609 2.454136 224 235 205
-2.143704 -0.877271 2.455988 219 229 204
-2.139712 -0.879400 2.461949 221 231 205
-2.137231 -0.882171 2.469706 214 224 200
-2.090811 -0.866751 2.426538 207 218 194
-2.085143 -0.868165 2.430494 204 213 189
-2.004896 -0.838403 2.347174 204 211 188
-1.940950 -0.815227 2.282290 204 212 189
-1.933517 -0.815687 2.283578 201 212 186
-1.918463 -0.812922 2.275837 203 214 188
-1.910046 -0.812957 2.275935 205 213 194
-1.933280 -0.826524 2.313917 205 213 194
-1.911854 -0.821034 2.298548 208 218 194
-1.893916 -0.816999 2.287251 208 219 194
-1.896870 -0.821980 2.301198 210 219 196
-1.888176 -0.821937 2.301076 211 219 196
-1.872876 -0.819005 2.292867 210 218 195
-1.863218 -0.818524 2.291521 211 219 196
-1.866669 -0.823824 2.306358 212 220 197
-1.858605 -0.824068 2.307041 211 219 195
-1.855747 -0.826632 2.314221 212 220 196
-1.854573 -0.829975 2.323580 212 220 196
-1.847520 -0.830706 2.325624 212 221 198
-1.849368 -0.835464 2.338946 218 222 200
-1.846704 -0.838220 2.346661 216 219 198
-1.830061 -0.834627 2.336601 215 222 199
-1.818210 -0.833195 2.332594 217 226 202
-1.807569 -0.832306 2.330106 221 228 204
-1.789003 -0.827743 2.317330 225 229 207
-1.777918 -0.826613 2.314166 226 231 208
-1.765332 -0.824771 2.309009 229 234 211
-1.755289 -0.824104 2.307143 232 238 214
-1.772379 -0.836232 2.341097 239 243 217
-1.760781 -0.834879 2.337309 238 241 217
-1.719691 -0.819459 2.294138 236 242 215
-1.738374 -0.832509 2.330674 236 242 215
-1.727784 -0.831602 2.328133 232 238 210
-1.710826 -0.849077 2.377057 137 144 116
-1.718490 -0.866368 2.425463 137 143 115
-1.696719 -0.864506 2.420251 146 156 128
-1.668111 -0.854482 2.392188 132 143 115
-1.655703 -0.852693 2.387179 119 130 102
-1.619676 -0.861988 2.413202 143 149 124
-1.637841 -0.876532 2.453920 159 165 140
-1.634364 -0.879594 2.462491 156 162 137
-1.598550 -0.865188 2.422160 153 160 132
-1.589562 -0.865219 2.422248 149 156 129
-1.583501 -0.866853 2.426822 138 145 117
-1.571130 -0.865032 2.421725 132 138 110
-1.613014 -0.893235 2.500680 124 131 103
-1.564810 -0.871587 2.440076 131 138 110
-1.545337 -0.865783 2.423828 143 147 124
-1.559269 -0.878736 2.460089 146 149 128
-1.551718 -0.879664 2.462688 150 155 131
-1.591319 -0.907493 2.540596 150 155 131
-1.581814 -0.907483 2.540570 147 152 128
-1.577058 -0.910215 2.548216 147 152 129
-1.579757 -0.917308 2.568074 146 151 129
-1.570252 -0.917358 2.568216 148 153 129
-1.547709 -0.909745 2.546902 149 154 131
-1.537918 -0.909580 2.546441 150 156 135
-1.525765 -0.908007 2.542037 149 155 133
-1.518803 -0.909524 2.546282 149 154 132
-1.500470 -0.904206 2.531395 159 165 141
-1.468902 -0.890796 2.493851 161 165 149
-1.499698 -0.933139 2.612394 39 42 37
-1.470348 -0.920867 2.578039 38 40 36
-1.469854 -0.926626 2.594161 43 45 40
-1.472890 -0.934701 2.616767 43 45 39
-1.464627 -0.935665 2.619467 44 46 41
-1.498836 -0.963958 2.698676 45 47 44
-1.488921 -0.964064 2.698972 45 47 45
-1.524247 -0.993665 2.781841 46 48 48
-1.512862 -0.993011 2.780012 44 46 45
-1.513384 -1.000218 2.800187 47 49 48
-1.508289 -1.003787 2.810179 46 48 46
-1.498399 -1.004192 2.811314 48 50 49
-1.504011 -1.015066 2.841756 48 50 49
-1.492922 -1.014743 2.840852 48 50 49
-1.498412 -1.025764 2.871706 48 51 49
-1.487529 -1.025656 2.871402 49 50 52
-1.499666 -1.041532 2.915851 50 51 53
-1.490315 -1.042609 2.918864 50 51 53
-1.478700 -1.042106 2.917456 51 52 53
-1.466051 -1.040861 2.913971 51 53 56
-1.454514 -1.040393 2.912662 51 53 57
-1.424177 -1.026370 2.873402 51 54 57
-1.413763 -1.026600 2.874047 52 56 59
-1.417039 -1.036851 2.902745 52 57 60
-1.415863 -1.043977 2.922696 53 58 61
-1.407639 -1.045978 2.928295 56 60 63
-1.411016 -1.056697 2.958305 55 59 62
-1.403422 -1.059304 2.965603 53 58 61
-1.369719 -1.042089 2.917410 54 58 61
-1.354546 -1.038809 2.908226 47 52 54
-1.355784 -1.048163 2.934414 51 56 56
-1.356699 -1.057418 2.960324 46 51 51
-1.359986 -1.068689 2.991876 47 49 51
-1.362076 -1.079198 3.021298 41 45 46
-1.349393 -1.078079 3.018167 43 47 48
-1.337479 -1.077562 3.016719 38 43 43
-1.318839 -1.071571 2.999947 51 50 53
-1.306757 -1.070852 2.997934 51 51 54
-1.284001 -1.061298 2.971185 60 62 61
-1.275415 -1.063391 2.977045 65 67 67
-1.281269 -1.077666 3.017009 58 60 55
-1.293735 -1.097805 3.073391 47 49 44
-1.351337 -1.156949 3.238968 41 42 36
-1.328522 -1.147689 3.213043 41 41 36
-1.364290 -1.189331 3.329624 40 41 33
-1.367704 -1.203275 3.368661 40 41 33
-1.353583 -1.201907 3.364832 42 43 33
-1.347354 -1.207588 3.380735 38 41 28
-1.334283 -1.207185 3.379608 38 39 28
-1.325469 -1.210663 3.389346 38 37 30
-1.311271 -1.209243 3.385369 45 46 33
-1.322931 -1.256337 3.517214 130 133 84
-1.304292 -1.251058 3.502434 117 120 78
-1.299224 -1.258822 3.524168 90 94 48
-1.263432 -1.236671 3.462156 92 96 51
-1.258092 -1.244177 3.483171 101 104 57
-1.248548 -1.247639 3.492862 110 113 68
-1.185984 -1.197634 3.352868 127 132 83
-1.148355 -1.184652 3.316524 134 135 82
-1.139630 -1.188469 3.327212 141 142 90
-1.093608 -1.153048 3.228046 133 132 83
-1.087187 -1.159055 3.244864 128 128 79
-1.079739 -1.164090 3.258960 113 111 61
-1.107650 -1.207797 3.381321 108 105 54
-1.079377 -1.190541 3.333011 106 104 56
-1.053305 -1.189213 3.329293 97 93 53
-1.058202 -1.209013 3.384726 86 81 42
-1.035813 -1.197742 3.353170 82 78 40
-1.032832 -1.223889 3.426372 92 90 41
-1.017189 -1.319817 3.694930 91 89 61
-0.997714 -1.330652 3.725264 65 67 48
-0.986880 -1.334818 3.736925 68 70 47
-0.955252 -1.310572 3.669048 84 87 66
-0.940856 -1.309607 3.666345 88 90 70
-0.953168 -1.346339 3.769180 101 101 89
-0.903548 -1.295382 3.626523 101 101 88
-0.890055 -1.295456 3.626729 104 108 94
-0.834646 -1.233582 3.453509 108 110 96
-0.833758 -1.251611 3.503983 104 111 101
-0.793697 -1.210472 3.388810 106 113 101
-0.781943 -1.211869 3.392722 104 110 99
-0.754108 -1.187981 3.325845 105 111 100
-0.742542 -1.189351 3.329681 105 111 100
-0.730111 -1.189358 3.329698 105 111 100
-0.714147 -1.183511 3.313331 103 108 98
-0.701450 -1.182966 3.311804 106 111 100
-0.686309 -1.178206 3.298479 103 109 97
-0.673712 -1.177721 3.297120 106 111 99
-0.662403 -1.179509 3.302128 103 109 100
-0.642640 -1.166028 3.264387 105 110 102
-0.630982 -1.167015 3.267148 103 109 99
-0.611419 -1.153133 3.228284 106 112 102
-0.599968 -1.154296 3.231541 104 110 100
-0.570362 -1.119865 3.135148 107 113 103
-0.559186 -1.120932 3.138136 106 112 102
-0.535042 -1.095495 3.066923 106 112 102
-0.514765 -1.077036 3.015244 106 112 102
-0.503492 -1.077008 3.015168 105 111 101
-0.490228 -1.072626 3.002899 106 112 102
-0.479009 -1.072617 3.002875 106 112 102
-0.462412 -1.060275 2.968323 107 113 102
-0.451307 -1.060230 2.968197 107 113 102
-0.436073 -1.050240 2.940227 107 113 102
-0.415432 -1.026372 2.873409 107 114 102
-0.404611 -1.026145 2.872773 107 113 103
-0.389748 -1.015377 2.842627 106 112 104
-0.379226 -1.015630 2.843334 107 113 105
-0.366377 -1.009486 2.826133 108 113 106
-0.355739 -1.009248 2.825467 106 112 105
-0.345668 -1.010657 2.829413 105 113 104
-0.334376 -1.008469 2.823286 105 112 104
-0.323800 -1.008370 2.823010 105 112 104
-0.320691 -1.032302 2.890010 106 113 105
-0.310016 -1.032695 2.891108 105 112 104
-0.295945 -1.021396 2.859477 104 111 103
-0.285157 -1.021007 2.858388 105 112 104
-0.274365 -1.020573 2.857173 105 112 104
-0.256182 -0.991499 2.775777 103 110 102
-0.245786 -0.991380 2.775446 102 109 101
-0.237508 -1.000174 2.800065 103 110 102
-0.227095 -1.000369 2.800611 101 108 100
0.063322 -0.588663 1.648006 255 255 251
0.069477 -0.588666 1.648017 254 255 250
0.077847 -0.605910 1.696291 254 255 250
0.084140 -0.605602 1.695429 255 255 252
0.090940 -0.608735 1.704200 255 255 252
0.097281 -0.608590 1.703794 255 255 251
0.103118 -0.605499 1.695142 254 255 251
0.109059 -0.603343 1.689107 254 255 252
0.115349 -0.603248 1.688838 254 255 251
0.122325 -0.606562 1.698117 253 255 249
0.128510 -0.605820 1.696039 253 255 249
0.136638 -0.613879 1.718602 251 252 247
0.143443 -0.615541 1.723255 248 249 245
0.152324 -0.599826 1.679258 245 246 242
0.158791 -0.600562 1.681320 252 253 249
0.167987 -0.611174 1.711029 255 255 252
0.174381 -0.611188 1.711067 255 255 252
0.182699 -0.617705 1.729312 255 255 252
0.189156 -0.617703 1.729306 255 255 253
0.189002 -0.596820 1.670845 255 255 253
0.192262 -0.587711 1.645342 255 255 253
0.198418 -0.587745 1.645438 255 255 253
0.203510 -0.584717 1.636960 255 255 253
0.209653 -0.584801 1.637195 253 255 253
0.216746 -0.587451 1.644614 254 255 253
0.223171 -0.588197 1.646704 253 255 253
0.229337 -0.588238 1.646817 252 255 252
0.261434 -0.497217 1.391998 152 175 193
0.347124 -0.550683 1.541681 223 241 227
0.351667 -0.548789 1.536376 236 252 239
0.354229 -0.543912 1.522723 243 255 245
0.364241 -0.550448 1.541023 244 255 247
0.369059 -0.549054 1.537118 243 255 243
0.382491 -0.560322 1.568664 245 255 243
0.389813 -0.562432 1.574573 249 255 247
0.395499 -0.562156 1.573799 250 255 249
0.404119 -0.565997 1.584552 251 255 247
0.410041 -0.566003 1.584569 252 255 245
0.412354 -0.561098 1.570836 252 255 245
0.418193 -0.561060 1.570730 254 255 245
0.428895 -0.567458 1.588644 253 255 244
0.436065 -0.569072 1.593161 252 255 241
0.441846 -0.568855 1.592554 252 255 242
0.439926 -0.558860 1.564572 253 255 241
0.453135 -0.560744 1.569846 247 250 230
0.463002 -0.565636 1.583542 237 241 219
0.481060 -0.580284 1.624551 234 236 209
0.489583 -0.583210 1.632741 234 237 212
0.499281 -0.587446 1.644601 233 241 213
0.507133 -0.589433 1.650164 233 240 213
0.515267 -0.591697 1.656501 233 239 211
0.519905 -0.589939 1.651581 237 243 215
0.529549 -0.593837 1.662494 233 240 211
0.537491 -0.595758 1.667870 223 230 200
0.517086 -0.566575 1.586171 201 205 185
0.523999 -0.567647 1.589171 202 205 183
0.566789 -0.587388 1.644439 79 86 75
0.579682 -0.594311 1.663818 82 92 85
0.593531 -0.602055 1.685500 83 93 84
0.601996 -0.604233 1.691597 93 104 98
0.607647 -0.603571 1.689745 90 101 93
0.614181 -0.603791 1.690359 92 104 103
0.619657 -0.602976 1.688079 96 109 106
0.622040 -0.599199 1.677503 113 123 128
0.536160 -0.456678 1.278505 254 255 255
0.540920 -0.456666 1.278471 252 255 254
0.545236 -0.456282 1.277395 255 255 253
0.542755 -0.450266 1.260555 253 255 252
0.547848 -0.450583 1.261441 252 255 250
0.553551 -0.451391 1.263705 254 255 249
0.557481 -0.450753 1.261918 245 248 221
0.683043 -0.517292 1.448198 109 112 88
0.717975 -0.503850 1.410567 255 255 242
0.727371 -0.506725 1.418617 255 255 235
0.731751 -0.506091 1.416840 255 255 237
0.737088 -0.506122 1.416927 255 255 232
0.738194 -0.503268 1.408937 255 255 231
0.743488 -0.503290 1.408999 255 255 224
0.751098 -0.504868 1.413416 254 254 223
0.747217 -0.498754 1.396300 255 253 218
0.752603 -0.498867 1.396618 255 253 221
0.754458 -0.496655 1.390424 255 255 212
0.759984 -0.496873 1.391034 255 255 221
0.659759 -0.401180 1.123134 218 155 139
0.663819 -0.401099 1.122906 218 145 140
0.667768 -0.400952 1.122496 222 152 145
0.672954 -0.401545 1.124155 237 164 159
0.664913 -0.394287 1.103837 247 180 174
0.669510 -0.394566 1.104619 246 199 192
0.669638 -0.392225 1.098064 255 206 200
0.672024 -0.391227 1.095269 255 209 205
0.676905 -0.391684 1.096550 255 208 203
0.687066 -0.395173 1.106317 255 207 203
0.690938 -0.395024 1.105901 251 203 198
0.700369 -0.398037 1.114334 255 206 206
0.704486 -0.398012 1.114265 255 206 205
0.720472 -0.404653 1.132856 251 206 203
0.716297 -0.399959 1.119716 251 207 204
0.720451 -0.399944 1.119673 254 204 199
0.721308 -0.398109 1.114536 254 206 200
0.725395 -0.398068 1.114421 254 204 200
0.711326 -0.388120 1.086572 254 204 201
0.715379 -0.388117 1.086564 251 202 199
0.706472 -0.381123 1.066983 246 199 196
0.699506 -0.375249 1.050537 249 195 194
0.703501 -0.375287 1.050644 251 191 190
0.706516 -0.374804 1.049293 249 189 190
0.710539 -0.374859 1.049447 250 184 190
0.838138 -0.337823 0.945762 78 77 67
0.846463 -0.339747 0.951148 83 82 72
0.852235 -0.340634 0.953631 78 77 67
0.856437 -0.340889 0.954345 78 77 67
0.864531 -0.342685 0.959372 81 80 70
0.866381 -0.342000 0.957456 81 80 70
0.866340 -0.340578 0.953476 80 78 69
0.870360 -0.340758 0.953978 78 75 66
0.871779 -0.339922 0.951639 81 78 69
0.875849 -0.340123 0.952200 81 78 69
0.876187 -0.338878 0.948715 79 76 68
0.882614 -0.339989 0.951825 82 78 71
0.885307 -0.339658 0.950899 79 76 68
0.888317 -0.339451 0.950320 80 76 70
0.889743 -0.338643 0.948058 79 76 69
0.898106 -0.340471 0.953175 79 76 69
0.901058 -0.340242 0.952533 81 79 71
0.898096 -0.337790 0.945669 81 76 70
0.906290 -0.339536 0.950558 77 71 66
0.909239 -0.339312 0.949930 74 69 64
0.908747 -0.337810 0.945726 75 70 65
0.912065 -0.337731 0.945504 73 69 63
0.911736 -0.336307 0.941518 70 65 60
0.916427 -0.336739 0.942727 75 71 66
0.916665 -0.335537 0.939363 70 61 57
0.917067 -0.334404 0.936191 70 61 58
0.920752 -0.334473 0.936383 68 60 56
0.928038 -0.335844 0.940222 65 57 54
0.931446 -0.335807 0.940117 66 58 54
0.935424 -0.335975 0.940587 67 58 55
0.938847 -0.335943 0.940497 65 56 54
0.943828 -0.336466 0.941963 67 57 55
0.948401 -0.336841 0.943011 69 58 57
0.953595 -0.337432 0.944668 69 63 60
0.967748 -0.335004 0.937869 110 108 102
0.971745 -0.335174 0.938346 120 117 103
0.975417 -0.335232 0.938508 118 116 105
0.980389 -0.335734 0.939914 125 120 107
0.979373 -0.334190 0.935590 132 127 113
0.977294 -0.332295 0.930285 136 130 121
1.093521 -0.360286 1.008649 164 152 90
1.097689 -0.360418 1.009017 169 155 89
1.101739 -0.360510 1.009276 170 158 92
1.105566 -0.360529 1.009328 169 153 92
1.112999 -0.361719 1.012662 165 150 88
1.116494 -0.361626 1.012401 168 152 91
1.117993 -0.360890 1.010339 173 156 94
1.127704 -0.362800 1.015687 174 158 97
1.128365 -0.361796 1.012875 169 153 106
1.136912 -0.363318 1.017138 170 154 94
2.688323 -0.834016 2.334893 37 27 18
2.695730 -0.833610 2.333755 36 27 16
2.715217 -0.836930 2.343050 33 32 16
2.747066 -0.844027 2.362918 37 33 16
2.757632 -0.844560 2.364411 32 29 19
2.761045 -0.842906 2.359781 32 29 19
2.770874 -0.843215 2.360646 32 27 20
2.784065 -0.844543 2.364362 29 22 21
2.795883 -0.845446 2.366891 29 22 19
2.708302 -0.816381 2.285522 21 20 14
2.649553 -0.796163 2.228920 21 20 13
2.659237 -0.796570 2.230060 20 19 15
2.620562 -0.782534 2.190765 17 18 16
2.629084 -0.782636 2.191049 17 17 14
2.663038 -0.790283 2.212459 17 17 17
2.671216 -0.790258 2.212389 17 17 17
2.743963 -0.809277 2.265632 17 17 17
2.810621 -0.826388 2.313536 18 18 18
2.818640 -0.826205 2.313026 19 19 19
2.879127 -0.841357 2.355444 20 20 20
2.887095 -0.841115 2.354768 20 20 20
2.941113 -0.854251 2.391541 22 22 22
2.950722 -0.854447 2.392091 23 23 23
-2.731888 -0.798710 2.259677 209 215 208
-2.726915 -0.799727 2.262553 209 214 207
-2.736152 -0.804930 2.277274 209 214 207
-2.730408 -0.805745 2.279580 210 215 208
-2.713796 -0.803347 2.272797 210 215 208
-2.703104 -0.802693 2.270946 210 215 208
-2.695152 -0.802851 2.271392 212 217 210
-2.679934 -0.800838 2.265697 212 217 210
-2.671646 -0.800890 2.265845 212 217 210
-2.665920 -0.801713 2.268173 212 217 210
-2.658126 -0.801917 2.268751 211 217 210
-2.631018 -0.796278 2.252795 213 215 208
-2.580769 -0.783575 2.216859 216 218 211
-2.571725 -0.783342 2.216199 217 221 214
-2.540202 -0.776239 2.196102 218 223 217
-2.531941 -0.776221 2.196052 219 225 217
-2.488789 -0.765471 2.165638 221 228 215
-2.480920 -0.765539 2.165830 222 229 216
-2.452650 -0.759291 2.148154 222 227 220
-2.414252 -0.749857 2.121463 224 228 223
-2.405801 -0.749692 2.120997 225 230 224
-2.392782 -0.748098 2.116488 225 230 224
-2.385385 -0.748257 2.116938 225 230 223
-2.356442 -0.741637 2.098207 224 229 222
-2.349154 -0.741810 2.098697 226 231 224
-2.288749 -0.725155 2.051577 228 233 226
-2.220567 -0.705915 1.997146 231 236 229
-2.213292 -0.705974 1.997312 233 238 231
-2.197139 -0.703192 1.989441 236 241 234
-2.190651 -0.703494 1.990296 239 244 237
-2.133080 -0.687339 1.944589 239 244 238
-2.125971 -0.687388 1.944729 239 244 238
-2.079854 -0.674783 1.909066 239 244 239
-2.017897 -0.656933 1.858568 238 246 239
-2.011251 -0.657030 1.858841 237 244 237
-2.005516 -0.657425 1.859960 238 245 238
-1.997797 -0.657171 1.859242 239 246 239
-2.009557 -0.663345 1.876708 238 245 238
-2.002168 -0.663219 1.876352 238 245 238
-2.119929 -0.844025 2.387881 208 217 190
-2.148225 -0.858904 2.429976 216 224 198
-2.168217 -0.870575 2.462994 218 229 206
-2.150932 -0.867315 2.453770 217 228 203
-2.128702 -0.862023 2.438800 227 238 215
-2.132272 -0.867180 2.453388 225 236 214
-2.141818 -0.874821 2.475007 216 227 204
-2.092552 -0.858403 2.428558 205 217 192
-2.086531 -0.859659 2.432112 205 215 191
-2.006143 -0.830153 2.348634 208 215 192
-1.941803 -0.807058 2.283294 205 213 189
-1.924484 -0.803387 2.272910 205 217 192
-1.919294 -0.804770 2.276823 204 215 190
-1.908462 -0.803790 2.274048 205 216 191
-1.922992 -0.813530 2.301604 208 219 195
-1.910378 -0.811822 2.296773 209 220 196
-1.891489 -0.807421 2.284321 210 221 196
-1.894738 -0.812472 2.298611 213 221 198
-1.891939 -0.814964 2.305663 213 220 198
-1.872428 -0.810247 2.292318 211 219 196
-1.863937 -0.810278 2.292405 211 219 196
-1.867238 -0.815459 2.307061 212 220 198
-1.857295 -0.814876 2.305414 214 222 197
-1.853025 -0.816790 2.310827 216 224 199
-1.858592 -0.823077 2.328615 213 220 196
-1.850191 -0.823209 2.328987 213 221 198
-1.850878 -0.827404 2.340856 219 223 198
-1.843071 -0.827824 2.342045 221 224 199
-1.830151 -0.825941 2.336717 219 225 200
-1.816486 -0.823702 2.330382 222 229 203
-1.801428 -0.820806 2.322190 227 233 208
-1.790965 -0.819986 2.319871 230 234 210
-1.783351 -0.820470 2.321238 231 235 211
-1.769017 -0.817851 2.313829 236 240 215
-1.756565 -0.816080 2.308820 239 244 220
-1.763540 -0.823363 2.329423 245 247 222
-1.750500 -0.821326 2.323662 243 245 220
-1.709277 -0.839439 2.374905 143 150 117
-1.712834 -0.863592 2.443237 102 108 73
-1.659308 -0.859499 2.431658 140 147 110
-1.651108 -0.859958 2.432957 153 161 123
-1.646599 -0.862355 2.439739 157 165 126
-1.620555 -0.853438 2.414511 157 165 127
-1.634082 -0.865377 2.448289 146 154 118
-1.626355 -0.866132 2.450424 151 159 123
-1.593648 -0.853516 2.414732 144 150 121
-1.589424 -0.856098 2.422037 142 148 116
-1.574438 -0.852880 2.412933 145 151 126
-1.549831 -0.844384 2.388895 133 139 114
-1.558791 -0.854182 2.416617 146 152 125
-1.561389 -0.860589 2.434741 146 152 125
-1.570463 -0.870661 2.463237 149 156 127
-1.558827 -0.869302 2.459393 145 152 122
-1.555090 -0.872358 2.468039 142 148 122
-1.571543 -0.886844 2.509022 140 145 122
-1.566755 -0.889446 2.516383 143 148 125
-1.571371 -0.897450 2.539027 147 152 130
-1.579746 -0.907710 2.568056 145 150 128
-1.569869 -0.907545 2.567588 149 154 135
-1.547132 -0.899897 2.545952 148 152 133
-1.538693 -0.900524 2.547724 150 152 138
-1.526349 -0.898858 2.543010 151 154 138
-1.516690 -0.898762 2.542738 147 151 138
-1.492241 -0.889845 2.517513 152 157 140
-1.477712 -0.886769 2.508809 155 157 149
-1.495853 -0.921015 2.605696 29 33 25
-1.489985 -0.923409 2.612470 31 34 27
-1.475799 -0.920646 2.604652 39 41 36
-1.479272 -0.928936 2.628105 43 45 40
-1.465234 -0.926266 2.620553 43 45 41
-1.499689 -0.954422 2.700211 44 46 43
-1.490119 -0.954752 2.701143 45 47 44
-1.524628 -0.983521 2.782536 44 46 46
-1.514277 -0.983547 2.782611 44 46 45
-1.512865 -0.989421 2.799228 46 49 47
-1.508015 -0.993111 2.809669 46 48 46
-1.497844 -0.993325 2.810274 47 48 49
-1.502232 -1.003265 2.838396 50 51 52
-1.491693 -1.003307 2.838513 49 50 51
-1.497425 -1.014371 2.869816 48 50 50
-1.486307 -1.014098 2.869043 49 50 53
-1.497103 -1.028881 2.910868 49 50 52
-1.488855 -1.030698 2.916006 49 50 52
-1.477680 -1.030499 2.915445 49 50 51
-1.466689 -1.030427 2.915240 50 51 55
-1.455429 -1.030163 2.914495 51 50 56
-1.425586 -1.016643 2.876244 49 52 56
-1.415676 -1.017241 2.877936 49 55 58
-1.419305 -1.027651 2.907386 50 54 57
-1.417935 -1.034574 2.926974 48 51 54
-1.408882 -1.035955 2.930880 49 52 54
-1.414762 -1.048425 2.966159 49 52 52
-1.403788 -1.048502 2.966377 45 49 49
-1.370711 -1.031940 2.919521 46 50 50
-1.356400 -1.029355 2.912207 44 48 48
-1.355589 -1.037055 2.933991 43 47 48
-1.367009 -1.054313 2.982818 42 46 47
-1.355973 -1.054394 2.983048 39 38 41
-1.357560 -1.064373 3.011281 41 40 43
-1.348293 -1.065939 3.015708 35 36 38
-1.330492 -1.060726 3.000961 40 40 42
-1.321641 -1.062620 3.006321 49 50 52
-1.304427 -1.057766 2.992588 50 51 54
-1.282433 -1.048919 2.967556 59 61 59
-1.275870 -1.052648 2.978106 60 62 61
-1.274179 -1.060497 3.000314 57 59 57
-1.286122 -1.079935 3.055306 48 50 49
-1.350604 -1.144231 3.237211 41 42 38
-1.327859 -1.135122 3.211440 40 40 35
-1.360611 -1.173723 3.320647 40 42 32
-1.367253 -1.190301 3.367550 38 43 29
-1.351690 -1.187678 3.360127 38 42 30
-1.364171 -1.209876 3.422931 38 42 31
-1.332103 -1.192611 3.374086 35 38 25
-1.340739 -1.211807 3.428393 28 30 14
-1.310418 -1.195822 3.383168 28 32 17
-1.337109 -1.256526 3.554909 124 125 78
-1.296735 -1.243273 3.517417 95 99 55
-1.262472 -1.235455 3.495296 100 102 51
-1.247072 -1.233136 3.488735 111 113 66
-1.207918 -1.219910 3.451317 114 113 62
-1.145669 -1.169523 3.308765 129 124 72
-1.101462 -1.136656 3.215779 134 129 79
-1.091165 -1.138443 3.220834 135 133 77
-1.073170 -1.132149 3.203028 132 131 76
-1.079783 -1.151966 3.259093 127 126 66
-1.091584 -1.177833 3.332275 127 126 66
-1.064402 -1.161749 3.286771 130 129 67
-1.062132 -1.172796 3.318026 131 130 66
-1.058604 -1.196827 3.386012 101 100 46
-1.031360 -1.180123 3.338755 86 83 34
-0.979604 -1.134620 3.210020 78 73 28
-1.018636 -1.194446 3.379276 89 85 41
-1.035056 -1.328958 3.759832 64 69 54
-1.028082 -1.338157 3.785858 57 61 39
-1.010016 -1.332975 3.771196 58 61 44
-0.990437 -1.325621 3.750392 67 71 51
-0.954848 -1.296321 3.667497 84 88 71
-0.937176 -1.290845 3.652005 91 96 78
-0.953418 -1.332612 3.770169 98 108 92
-0.900806 -1.277948 3.615517 99 107 90
-0.888870 -1.280204 3.621899 105 111 98
-0.838598 -1.226464 3.469861 106 111 97
-0.834991 -1.240356 3.509163 106 113 99
-0.793688 -1.197802 3.388770 106 113 98
-0.781309 -1.198227 3.389973 106 112 98
-0.754033 -1.175443 3.325513 106 112 99
-0.742480 -1.176818 3.329402 104 110 96
-0.730079 -1.176870 3.329552 105 111 97
-0.713876 -1.170691 3.312070 103 112 97
-0.701484 -1.170654 3.311966 104 112 96
-0.686138 -1.165597 3.297659 103 112 99
-0.673783 -1.165530 3.297470 103 112 99
-0.662002 -1.166470 3.300128 103 112 98
-0.642659 -1.153871 3.264483 103 112 98
-0.630901 -1.154665 3.266729 104 110 100
-0.611382 -1.141007 3.228088 106 112 102
-0.599030 -1.140443 3.226494 107 113 103
-0.570680 -1.108773 3.136895 107 113 103
-0.559209 -1.109258 3.138266 105 111 101
-0.535147 -1.084253 3.067524 107 113 103
-0.514758 -1.065759 3.015200 106 112 102
-0.503498 -1.065761 3.015207 105 111 101
-0.490244 -1.061445 3.002995 105 111 101
-0.479017 -1.061419 3.002922 105 112 101
-0.462413 -1.049193 2.968332 106 111 102
-0.451280 -1.049083 2.968022 107 111 104
-0.436005 -1.039096 2.939767 107 112 105
-0.415340 -1.015416 2.872772 106 112 103
-0.404592 -1.015368 2.872637 106 111 104
-0.389835 -1.004984 2.843258 107 112 105
-0.379261 -1.005103 2.843595 107 112 105
-0.366328 -0.998797 2.825753 107 112 105
-0.355818 -0.998917 2.826095 107 113 105
-0.345731 -1.000270 2.829923 106 113 105
-0.334336 -0.997807 2.822953 104 111 103
-0.323853 -0.997990 2.823472 105 112 104
-0.320812 -1.021893 2.891096 105 112 104
-0.310005 -1.021863 2.891011 105 112 104
-0.295837 -1.010350 2.858440 105 112 104
-0.285189 -1.010446 2.858711 105 112 104
-0.274331 -1.009777 2.856819 104 111 103
-0.256030 -0.980551 2.774132 104 111 103
-0.245693 -0.980645 2.774400 103 110 102
-0.237467 -0.989544 2.799575 102 109 101
-0.227021 -0.989584 2.799690 101 108 100
0.063323 -0.582521 1.648044 255 255 250
0.069476 -0.582507 1.648005 253 255 249
0.077864 -0.599703 1.696653 254 255 250
0.084198 -0.599686 1.696606 254 255 251
0.090943 -0.602393 1.704266 250 253 247
0.097293 -0.602300 1.704003 250 252 246
0.103119 -0.599171 1.695150 252 254 248
0.109033 -0.596892 1.688701 253 255 251
0.115342 -0.596905 1.688739 254 255 252
0.122384 -0.600512 1.698943 254 255 251
0.128718 -0.600457 1.698789 254 255 250
0.137868 -0.612931 1.734079 254 255 250
0.144512 -0.613644 1.736094 255 255 252
0.144171 -0.585909 1.657628 255 255 252
0.153418 -0.597816 1.691317 255 255 253
0.159744 -0.597852 1.691417 255 255 252
0.168568 -0.606878 1.716954 255 255 252
0.174449 -0.605035 1.711739 255 255 252
0.182892 -0.611892 1.731138 255 255 252
0.189669 -0.612899 1.733988 254 255 252
0.189622 -0.592518 1.676327 255 255 250
0.192824 -0.583265 1.650148 254 255 250
0.199003 -0.583313 1.650284 255 255 253
0.204247 -0.580700 1.642892 255 255 252
0.210569 -0.581215 1.644349 254 255 251
0.345587 -0.542513 1.534855 227 244 231
0.354938 -0.539303 1.525773 237 251 237
0.363783 -0.544007 1.539083 243 253 244
0.369460 -0.543903 1.538788 247 255 243
0.382646 -0.554687 1.569298 248 255 242
0.390164 -0.557054 1.575992 251 255 244
0.395571 -0.556379 1.574083 253 255 244
0.404144 -0.560113 1.584649 252 255 244
0.410062 -0.560113 1.584649 252 255 244
0.412372 -0.555255 1.570905 253 255 244
0.418216 -0.555224 1.570817 254 255 242
0.428895 -0.561525 1.588644 253 255 240
0.436079 -0.563141 1.593214 253 255 239
0.441996 -0.563099 1.593095 253 255 239
0.441458 -0.554943 1.570021 252 255 237
0.445920 -0.553204 1.565100 251 255 236
0.452834 -0.554513 1.568803 254 255 233
0.457890 -0.553542 1.566058 252 253 231
0.470230 -0.561290 1.587977 250 252 224
0.487174 -0.574272 1.624707 246 250 218
0.493850 -0.574980 1.626709 246 251 219
0.502087 -0.577467 1.633745 246 250 218
0.511307 -0.581010 1.643769 246 252 224
0.514188 -0.577352 1.633421 245 251 223
0.525495 -0.583129 1.649765 238 243 214
0.524886 -0.575704 1.628758 224 229 198
0.566169 -0.580611 1.642640 105 112 97
0.582068 -0.590517 1.670666 99 110 98
0.597312 -0.599555 1.696236 102 112 98
0.602424 -0.598341 1.692800 103 113 109
0.608603 -0.598200 1.692402 104 114 109
0.615731 -0.598986 1.694625 98 109 105
0.619729 -0.596741 1.688275 94 107 99
0.623632 -0.594451 1.681795 112 123 128
0.536017 -0.451783 1.278165 253 255 254
0.540905 -0.451878 1.278435 251 255 252
0.545074 -0.451377 1.277016 255 255 254
0.542765 -0.445566 1.260578 254 255 253
0.547769 -0.445807 1.261258 252 255 247
0.553592 -0.446705 1.263800 250 254 247
0.557264 -0.445866 1.261426 245 243 237
0.717970 -0.498578 1.410557 254 255 245
0.727356 -0.501417 1.418588 254 255 244
0.731795 -0.500829 1.416924 255 255 245
0.737017 -0.500782 1.416791 255 255 242
0.738110 -0.497950 1.408778 255 254 239
0.743362 -0.497943 1.408759 254 255 229
0.751053 -0.499559 1.413332 252 253 226
0.746672 -0.493179 1.395281 254 252 216
0.752304 -0.493455 1.396063 254 253 219
0.754034 -0.491186 1.389643 253 252 212
0.759301 -0.491236 1.389783 252 252 221
0.659846 -0.397038 1.123283 219 160 141
0.663227 -0.396551 1.121906 216 144 139
0.667684 -0.396709 1.122353 220 151 145
0.672774 -0.397240 1.123855 238 163 164
0.664835 -0.390118 1.103707 249 183 180
0.669470 -0.390418 1.104554 247 200 193
0.669597 -0.388100 1.097998 255 207 201
0.671631 -0.386910 1.094629 255 212 206
0.676808 -0.387533 1.096393 255 210 203
0.687001 -0.391004 1.106213 255 207 207
0.691218 -0.391052 1.106349 254 206 205
0.700263 -0.393815 1.114166 254 210 208
0.704523 -0.393871 1.114322 251 207 205
0.720468 -0.400420 1.132851 253 208 206
0.716304 -0.395781 1.119727 251 207 205
0.720568 -0.395826 1.119855 254 205 205
0.721134 -0.393851 1.114268 252 203 203
0.724981 -0.393680 1.113784 254 200 199
0.710428 -0.383577 1.085199 255 200 199
0.715471 -0.384109 1.086704 254 200 199
0.706655 -0.377236 1.067260 250 198 195
0.699602 -0.371376 1.050681 249 193 194
0.703827 -0.371535 1.051130 253 193 197
0.706585 -0.370922 1.049396 248 188 193
0.854344 -0.336500 0.952012 60 54 50
0.859541 -0.337144 0.953834 57 50 47
0.861127 -0.336372 0.951650 57 50 46
0.864541 -0.336318 0.951496 56 48 45
0.868587 -0.336508 0.952036 61 53 50
0.873113 -0.336883 0.953095 60 54 50
0.876767 -0.336919 0.953197 59 55 50
0.875680 -0.335141 0.948166 64 60 56
0.876750 -0.334199 0.945501 68 64 59
0.879912 -0.334059 0.945105 66 63 58
0.878243 -0.332093 0.939543 65 58 55
0.881027 -0.331820 0.938771 64 58 55
0.888262 -0.333219 0.942729 66 60 57
0.892044 -0.333316 0.943004 63 57 54
0.894075 -0.332761 0.941434 64 59 55
0.906819 -0.336182 0.951113 63 58 55
0.910169 -0.336108 0.950902 62 57 54
0.909491 -0.334552 0.946501 63 57 55
0.913090 -0.334576 0.946567 64 58 55
0.911024 -0.332531 0.940783 65 60 56
0.915340 -0.332823 0.941609 63 58 55
0.914954 -0.331409 0.937609 65 57 55
0.917937 -0.331222 0.937079 64 57 54
0.920706 -0.330960 0.936337 62 55 53
0.928292 -0.332424 0.940479 60 54 51
0.931777 -0.332414 0.940452 59 53 50
0.935871 -0.332621 0.941037 59 53 51
0.939300 -0.332590 0.940950 59 53 51
0.942474 -0.332471 0.940612 59 55 50
0.947735 -0.333085 0.942349 58 53 49
0.952828 -0.333636 0.943908 63 58 54
0.961144 -0.335307 0.948637 66 61 57
0.962933 -0.334697 0.946912 67 62 57
0.971191 -0.336332 0.951537 70 65 61
0.972626 -0.335602 0.949470 75 70 65
0.974281 -0.334952 0.947631 78 73 66
0.964163 -0.330273 0.934395 78 73 66
0.965843 -0.329655 0.932647 79 75 63
1.092393 -0.356151 1.007608 161 151 94
1.083294 -0.351972 0.995785 168 156 94
1.101802 -0.356761 1.009333 162 152 92
1.105569 -0.356760 1.009331 165 149 89
1.112813 -0.357878 1.012492 165 150 90
1.116536 -0.357859 1.012439 165 149 88
1.120760 -0.358000 1.012840 167 150 86
1.131785 -0.360306 1.019362 167 150 88
1.134103 -0.359833 1.018025 165 147 92
1.151982 -0.364285 1.030620 181 162 99
1.154122 -0.363746 1.029096 157 140 98
1.159539 -0.364241 1.030495 161 144 97
1.172662 -0.367144 1.038710 151 133 95
2.588097 -0.799715 2.262521 32 22 17
2.687836 -0.825146 2.334469 32 22 11
2.693990 -0.824362 2.332250 36 26 15
2.717201 -0.828784 2.344762 37 30 21
2.747433 -0.835314 2.363234 41 31 22
2.752006 -0.834025 2.359588 41 38 27
2.761297 -0.834169 2.359997 36 34 21
2.774314 -0.835435 2.363577 32 29 20
2.790866 -0.837754 2.370137 31 27 23
2.796611 -0.836824 2.367507 29 25 19
2.706928 -0.807436 2.284363 22 21 18
2.644993 -0.786482 2.225083 20 19 15
2.658166 -0.787924 2.229161 18 18 15
2.620469 -0.774325 2.190687 18 18 17
2.629080 -0.774451 2.191045 19 19 17
2.662714 -0.781925 2.212190 17 17 18
2.671131 -0.781971 2.212319 17 17 17
2.743928 -0.800805 2.265603 18 18 18
2.809603 -0.817451 2.312698 18 18 18
2.819592 -0.817843 2.313807 19 19 19
2.877824 -0.832183 2.354378 19 19 19
2.885696 -0.831918 2.353627 19 19 19
2.937463 -0.844270 2.388573 22 22 22
2.953996 -0.846451 2.394744 25 25 25
-2.706123 -0.782818 2.238366 211 216 209
-2.697762 -0.782817 2.238365 211 216 209
-2.701820 -0.786432 2.248700 210 215 208
-2.693261 -0.786385 2.248566 211 216 209
-2.677471 -0.784220 2.242375 212 217 210
-2.676164 -0.786296 2.248312 212 217 210
-2.667788 -0.786302 2.248330 212 217 210
-2.656338 -0.785400 2.245749 211 216 209
-2.647657 -0.785313 2.245499 212 217 210
-2.638974 -0.785224 2.245247 213 218 211
-2.631788 -0.785582 2.246271 210 216 209
-2.617245 -0.783740 2.241002 213 216 209
-2.552917 -0.766929 2.192934 214 216 209
-2.544171 -0.766761 2.192454 215 219 212
-2.507538 -0.758161 2.167863 216 221 215
-2.500093 -0.758358 2.168428 218 222 216
-2.452725 -0.746408 2.134258 222 228 217
-2.444503 -0.746331 2.134038 222 228 218
-2.434581 -0.745733 2.132328 222 228 218
-2.385360 -0.733055 2.096075 224 230 220
-2.375978 -0.732576 2.094705 226 232 222
-2.353760 -0.728122 2.081972 225 231 221
-2.345647 -0.728018 2.081673 225 231 221
-2.322546 -0.723245 2.068026 224 229 222
-2.313259 -0.722757 2.066629 224 229 223
-2.261788 -0.709041 2.027410 226 231 224
-2.205560 -0.693737 1.983650 228 233 226
-2.200145 -0.694366 1.985448 230 235 228
-2.155025 -0.682426 1.951308 236 241 234
-2.148548 -0.682683 1.952044 238 243 236
-2.109036 -0.672410 1.922670 239 244 238
-2.102265 -0.672541 1.923045 240 244 239
-2.048295 -0.657522 1.880098 240 245 240
-1.987042 -0.640053 1.830149 239 246 239
-1.980466 -0.640137 1.830388 237 245 238
-1.974925 -0.640557 1.831589 239 246 239
-1.966934 -0.640182 1.830519 240 247 240
-1.959864 -0.640106 1.830301 238 245 238
-1.954262 -0.640511 1.831457 238 245 238
-1.905972 -0.626877 1.792475 242 249 242
-1.878297 -0.619953 1.772675 238 245 238
-1.873067 -0.620413 1.773991 240 247 240
-1.808931 -0.601296 1.719329 240 247 240
-1.803143 -0.601508 1.719933 240 246 239
-1.784217 -0.597322 1.707965 241 247 240
-1.780119 -0.598089 1.710156 243 247 242
-2.116033 -0.826618 2.363606 237 242 213
-2.110358 -0.827854 2.367142 229 233 204
-2.122545 -0.836137 2.390827 228 231 202
-2.124598 -0.840482 2.403250 224 227 198
-2.148746 -0.853642 2.440877 217 227 200
-2.139829 -0.853721 2.441103 223 232 205
-2.129463 -0.853220 2.439672 215 224 194
-2.125323 -0.855220 2.445392 215 224 193
-2.114872 -0.854688 2.443870 213 221 195
-2.027630 -0.822982 2.353211 211 218 195
-2.021438 -0.824041 2.356238 209 217 193
-1.937214 -0.793160 2.267937 209 217 191
-1.849619 -0.760621 2.174897 208 216 191
-1.843332 -0.761379 2.177065 206 214 191
-1.836509 -0.761922 2.178616 212 220 198
-1.829119 -0.762233 2.179506 211 219 195
-1.848124 -0.773595 2.211996 211 219 196
-1.838934 -0.773205 2.210879 213 220 198
-1.851330 -0.781928 2.235821 212 221 198
-1.875798 -0.795852 2.275635 212 220 197
-1.867167 -0.795795 2.275474 213 221 198
-1.846265 -0.790485 2.260289 213 221 198
-1.838643 -0.790837 2.261296 212 220 198
-1.818156 -0.785634 2.246418 215 223 201
-1.813863 -0.787413 2.251504 213 221 198
-1.794410 -0.782596 2.237731 215 222 200
-1.794702 -0.786385 2.248567 213 223 197
-1.787476 -0.786901 2.250042 213 224 199
-1.804335 -0.798075 2.281992 217 225 200
-1.792168 -0.796455 2.277361 221 228 203
-1.782257 -0.795828 2.275567 225 232 207
-1.771690 -0.794900 2.272913 228 235 210
-1.779522 -0.802258 2.293952 230 237 211
-1.780972 -0.806796 2.306927 231 239 212
-1.770829 -0.806100 2.304939 233 241 214
-1.776378 -0.812576 2.323456 235 242 213
-1.770507 -0.813866 2.327145 239 247 218
-1.766901 -0.816215 2.333862 236 238 213
-1.751552 -0.813137 2.325058 233 237 210
-1.714051 -0.832889 2.381537 146 152 124
-1.722755 -0.850356 2.431483 139 146 118
-1.640368 -0.836134 2.390816 138 144 118
-1.606431 -0.823317 2.354168 159 164 139
-1.636482 -0.843334 2.411405 152 158 133
-1.630892 -0.845104 2.416466 151 156 131
-1.608214 -0.837990 2.396124 148 153 128
-1.605872 -0.841452 2.406023 146 151 130
-1.597702 -0.841882 2.407251 141 147 125
-1.573566 -0.833856 2.384303 138 144 120
-1.570263 -0.836841 2.392838 138 144 120
-1.545841 -0.828541 2.369106 146 152 127
-1.544312 -0.832487 2.380388 146 152 127
-1.525028 -0.826851 2.364274 149 155 129
-1.535838 -0.837562 2.394899 154 160 133
-1.528463 -0.838422 2.397360 141 146 124
-1.534934 -0.846933 2.421696 133 137 116
-1.516843 -0.841912 2.407338 127 132 110
-1.546378 -0.863423 2.468846 125 130 108
-1.539314 -0.864635 2.472310 129 134 111
-1.572793 -0.888771 2.541325 137 142 120
-1.575693 -0.895815 2.561467 145 150 129
-1.566999 -0.896314 2.562894 145 150 132
-1.541521 -0.887160 2.536720 146 151 132
-1.531701 -0.886960 2.536146 146 151 132
-1.522673 -0.887218 2.536886 150 155 135
-1.513611 -0.887460 2.537576 147 150 136
-1.502558 -0.886530 2.534919 146 149 133
-1.510668 -0.896967 2.564761 151 154 141
-1.484483 -0.887044 2.536388 159 163 148
-1.524566 -0.934857 2.673102 25 27 22
-1.485019 -0.916609 2.620925 38 40 34
-1.476704 -0.917525 2.623543 40 42 37
-1.467866 -0.918125 2.625261 40 42 38
-1.483943 -0.934423 2.671861 40 42 39
-1.474742 -0.934915 2.673269 41 43 41
-1.505403 -0.960858 2.747450 41 43 43
-1.498783 -0.963198 2.754139 44 46 45
-1.506302 -0.974719 2.787083 46 48 47
-1.508318 -0.982816 2.810234 46 48 47
-1.498128 -0.983016 2.810807 46 47 49
-1.502363 -0.992751 2.838644 48 50 51
-1.490984 -0.992234 2.837164 45 46 47
-1.490727 -0.999164 2.856979 46 48 49
-1.479538 -0.998813 2.855977 45 46 49
-1.483439 -1.008719 2.884301 47 47 50
-1.469277 -1.006397 2.877661 47 47 50
-1.457923 -1.005978 2.876464 45 46 48
