ply
format ascii 1.0
element vertex 1289
property float x
property float y
property float z
property uchar red
property uchar green
property uchar blue
end_header
2.320040 1.394120 2.246429 80 82 72
2.303603 1.374228 2.214377 78 80 66
2.419767 1.433158 2.309334 139 141 128
2.481661 1.464557 2.359928 147 149 136
2.508287 1.474992 2.376743 147 149 136
2.503137 1.466734 2.363436 148 149 137
2.567493 1.499117 2.415617 148 149 138
2.560048 1.489497 2.400115 146 148 135
2.594002 1.503946 2.423398 149 151 138
2.604716 1.504867 2.424883 151 153 140
2.611400 1.503462 2.422618 152 154 140
2.567312 1.472937 2.373432 154 156 142
2.576675 1.473184 2.373830 155 156 143
2.529135 1.441008 2.321983 155 157 144
2.540746 1.442639 2.324611 154 155 143
2.491077 1.409584 2.271347 154 155 145
2.499266 1.409382 2.271021 156 157 145
2.434115 1.367965 2.204283 157 160 142
2.324784 1.302083 2.098125 159 162 145
2.325234 1.297927 2.091428 162 165 148
2.284913 1.271118 2.048229 163 166 149
2.289007 1.269115 2.045001 165 168 151
2.299062 1.270418 2.047101 168 171 154
2.307500 1.270823 2.047754 169 172 155
2.337160 1.282874 2.067172 170 173 156
2.343344 1.282001 2.065765 172 175 158
2.345803 1.279104 2.061097 172 175 158
2.328750 1.265620 2.039370 171 174 157
2.335919 1.265347 2.038929 171 174 157
2.311866 1.248217 2.011328 173 176 159
2.319966 1.248503 2.011788 171 174 157
2.297763 1.232533 1.986054 171 174 157
2.311797 1.236040 1.991706 173 176 159
2.319336 1.236064 1.991744 172 175 158
2.269303 1.205503 1.942500 173 176 159
2.275761 1.205052 1.941773 173 176 159
2.252578 1.188959 1.915841 173 176 159
2.259079 1.188586 1.915241 175 178 161
2.236220 1.172818 1.889832 174 176 159
2.253793 1.178287 1.898645 172 175 158
2.260595 1.178108 1.898357 173 177 160
2.255034 1.171508 1.887722 175 179 162
2.261752 1.171309 1.887400 174 178 161
2.255173 1.164245 1.876019 175 179 162
2.262231 1.164245 1.876018 176 180 163
2.269003 1.164097 1.875780 177 181 164
2.264128 1.157994 1.865945 176 180 163
2.270966 1.157900 1.865793 175 179 162
2.258548 1.148019 1.849872 177 181 164
2.265482 1.148005 1.849850 178 182 165
2.224845 1.123960 1.811103 177 181 164
2.231644 1.123951 1.811090 179 183 166
2.228251 1.118826 1.802831 178 182 165
2.228526 1.115567 1.797580 177 181 164
2.234863 1.115354 1.797236 176 180 163
2.226200 1.107678 1.784868 176 180 163
2.233266 1.107852 1.785148 178 182 165
2.209899 1.092972 1.761172 179 183 166
2.217095 1.093253 1.761624 177 181 164
-0.137828 0.404373 0.647663 199 205 182
-0.135083 0.403455 0.646193 187 193 169
-0.132784 0.403858 0.646838 190 196 173
-0.130279 0.403640 0.646489 191 198 174
-0.127905 0.403824 0.646784 192 197 178
-0.126209 0.406200 0.650590 193 197 180
-0.123758 0.406190 0.650574 195 199 181
-0.120850 0.404650 0.648106 196 200 183
-0.118869 0.406215 0.650614 198 202 185
-0.116392 0.406115 0.650454 199 203 185
-0.113658 0.405094 0.648819 201 205 187
-0.111273 0.405298 0.649145 204 208 191
-0.109481 0.407722 0.653028 208 212 195
-0.107026 0.407732 0.653043 210 214 197
-0.104697 0.408235 0.653849 211 215 198
-0.102704 0.410099 0.656834 214 218 201
-0.100232 0.410098 0.656833 216 220 203
-0.097461 0.408843 0.654823 220 224 207
-0.094971 0.408732 0.654646 223 227 210
-0.091210 0.403001 0.645466 224 228 212
-0.088675 0.402518 0.644693 228 231 216
-0.085963 0.401185 0.642558 229 233 217
-0.083952 0.403136 0.645682 228 232 216
-0.081449 0.402773 0.645101 230 233 218
-0.080839 0.412038 0.659940 231 235 219
-0.078207 0.411259 0.658693 232 238 216
-0.076505 0.415475 0.665444 233 238 218
-0.072115 0.419071 0.671204 231 236 216
-0.069756 0.420072 0.672807 198 203 180
-0.067229 0.420104 0.672859 187 192 170
-0.064711 0.420193 0.673001 192 197 175
-0.062258 0.420732 0.673864 190 196 173
-0.059750 0.420927 0.674176 194 199 177
-0.057283 0.421440 0.674998 196 201 179
-0.054670 0.420879 0.674100 194 199 177
-0.052472 0.423617 0.678486 197 202 180
-0.049932 0.423725 0.678659 199 204 181
-0.047625 0.425938 0.682202 199 204 181
-0.045051 0.425870 0.682094 196 201 179
-0.042862 0.429653 0.688154 197 203 180
-0.040273 0.429662 0.688167 200 203 182
-0.037712 0.429989 0.688692 202 204 183
-0.035208 0.431057 0.690401 200 203 181
-0.032610 0.431057 0.690402 200 203 182
-0.017094 0.432896 0.693347 201 203 183
-0.014471 0.432493 0.692702 201 203 182
-0.011991 0.437112 0.700100 200 202 181
-0.009330 0.435835 0.698055 204 207 185
-0.004078 0.436111 0.698496 210 213 191
0.138965 0.906020 1.451125 60 60 58
0.144433 0.906063 1.451194 64 64 62
0.155681 0.941043 1.507221 62 62 60
0.164437 0.959032 1.536033 64 64 62
0.170191 0.958885 1.535796 63 63 61
0.181375 0.988334 1.582964 62 62 60
0.187338 0.988367 1.583017 62 62 60
0.192027 0.981884 1.572632 61 61 59
0.197936 0.981841 1.572564 61 61 59
0.203427 0.979785 1.569271 61 61 59
0.209012 0.978287 1.566872 64 64 62
0.214915 0.978315 1.566916 64 64 61
0.218959 0.970112 1.553777 65 65 62
0.224803 0.970098 1.553756 65 65 63
0.228910 0.962779 1.542034 65 65 63
0.234670 0.962605 1.541754 66 66 64
0.230402 0.922297 1.477195 66 66 63
0.237386 0.927867 1.486117 66 66 63
0.243103 0.928340 1.486874 65 65 63
0.254547 0.950174 1.521845 64 64 62
0.260227 0.950001 1.521567 66 66 63
0.277892 0.992650 1.589876 65 65 63
0.283835 0.992511 1.589654 66 66 63
0.296286 1.014665 1.625136 70 70 67
0.306123 1.027153 1.645138 68 68 66
0.312328 1.027198 1.645209 66 66 64
0.388789 1.016680 1.628364 70 70 68
0.394833 1.016465 1.628020 67 67 65
0.397059 1.006578 1.612184 69 69 67
0.403014 1.006299 1.611736 68 68 66
0.413509 1.017196 1.629191 66 66 64
0.419857 1.017723 1.630034 68 68 66
0.428894 1.024657 1.641140 69 69 67
0.436711 1.028524 1.647334 67 67 65
0.442880 1.028454 1.647221 68 68 66
0.447025 1.023750 1.639687 69 69 67
0.453026 1.023368 1.639075 69 69 67
0.457071 1.018636 1.631497 67 67 65
0.463476 1.019221 1.632433 65 65 62
0.466994 1.013524 1.623310 66 66 63
0.470219 1.007346 1.613414 65 65 63
0.476045 1.006828 1.612584 64 64 62
0.485279 1.013438 1.623170 66 66 64
0.491289 1.013235 1.622846 65 65 63
0.497981 1.014428 1.624757 66 66 64
0.504208 1.014655 1.625120 69 69 67
0.511891 1.017772 1.630112 68 68 66
0.518427 1.018561 1.631376 69 68 66
0.524538 1.018506 1.631289 67 70 66
0.536596 1.029869 1.649487 67 69 66
0.542737 1.029741 1.649283 69 71 68
0.547291 1.026642 1.644320 68 70 67
0.553343 1.026392 1.643919 69 71 68
0.558483 1.024471 1.640843 66 68 65
0.571278 1.036483 1.660081 69 71 68
0.577280 1.036044 1.659378 67 69 66
0.590397 1.048247 1.678923 68 70 67
0.596781 1.048362 1.679108 69 71 68
0.610209 1.060721 1.698902 68 70 67
0.616670 1.060838 1.699088 68 70 67
0.625481 1.064954 1.705681 68 70 67
0.635038 1.070242 1.714152 68 70 67
0.641472 1.070215 1.714108 68 70 67
0.654019 1.080286 1.730238 67 69 66
0.660598 1.080397 1.730415 68 70 67
0.674059 1.091650 1.748439 68 70 67
0.680621 1.091623 1.748396 67 69 66
0.697563 1.108083 1.774759 68 70 67
0.712242 1.120672 1.794923 69 71 68
0.718942 1.120587 1.794787 69 71 68
0.730830 1.128515 1.807485 68 70 67
0.737735 1.128673 1.807738 67 69 66
0.756863 1.147357 1.837662 69 71 68
0.763935 1.147593 1.838040 70 72 69
0.771847 1.149075 1.840414 71 73 70
0.784193 1.157073 1.853223 69 71 68
0.790642 1.156305 1.851993 67 69 66
0.797825 1.156615 1.852490 67 69 66
0.804847 1.156689 1.852609 68 71 68
0.820254 1.168707 1.871857 70 69 67
0.827218 1.168595 1.871678 70 69 68
0.831138 1.164219 1.864669 69 69 67
0.844587 1.173154 1.878981 71 71 69
0.851839 1.173404 1.879380 70 70 68
0.858792 1.173241 1.879120 70 70 68
0.865650 1.172952 1.878656 69 69 67
0.881110 1.184229 1.896719 70 70 68
0.888198 1.184162 1.896612 70 70 68
0.883633 1.168685 1.871822 68 68 66
0.897835 1.178078 1.886866 68 68 66
0.905114 1.178311 1.887240 71 71 69
0.918313 1.186186 1.899853 71 71 69
0.925320 1.186004 1.899562 71 71 69
0.944387 1.201163 1.923841 72 72 70
0.951570 1.201092 1.923727 72 72 70
0.962724 1.205997 1.931582 72 72 70
0.974323 1.211380 1.940205 72 72 70
0.981719 1.211498 1.940394 72 71 70
0.994251 1.217905 1.950655 70 73 70
1.001677 1.218008 1.950820 71 73 70
1.013387 1.223282 1.959267 71 73 70
1.020710 1.223222 1.959171 71 73 70
1.031166 1.226891 1.965048 70 72 69
1.042686 1.231765 1.972854 72 74 71
1.050170 1.231835 1.972966 71 73 70
1.063173 1.238333 1.983374 72 74 71
1.070753 1.238467 1.983588 73 75 72
1.085017 1.246278 1.996099 73 75 72
1.092537 1.246287 1.996114 73 75 72
1.104720 1.251579 2.004590 71 73 70
1.118161 1.258216 2.015220 72 74 71
1.125755 1.258227 2.015238 73 75 72
1.138259 1.263690 2.023988 72 74 71
1.145875 1.263690 2.023987 73 75 72
1.161062 1.271984 2.037271 72 74 71
1.168701 1.271954 2.037224 72 74 71
1.179380 1.275212 2.042441 73 75 72
1.192260 1.280792 2.051378 75 77 74
1.199947 1.280758 2.051323 75 77 74
1.212076 1.285434 2.058812 74 76 73
1.219746 1.285352 2.058682 74 76 73
1.231417 1.289461 2.065263 74 76 73
1.239283 1.289559 2.065420 76 78 75
1.251030 1.293670 2.072004 75 77 74
1.252100 1.286756 2.060931 75 77 74
1.260017 1.286921 2.061194 75 77 74
1.258542 1.277551 2.046187 74 76 73
1.266363 1.277673 2.046382 73 75 72
1.281947 1.285578 2.059043 73 75 72
1.289896 1.285779 2.059365 74 76 73
1.310934 1.298945 2.080453 76 78 75
1.338885 1.318765 2.112198 73 75 72
1.346835 1.318766 2.112200 73 75 72
1.358807 1.322683 2.118473 77 79 76
1.366099 1.322025 2.117419 73 75 72
1.382145 1.329797 2.129867 76 78 75
1.389912 1.329560 2.129487 74 76 73
1.410134 1.341172 2.148085 73 75 72
1.426061 1.348589 2.159965 75 77 74
1.434184 1.348584 2.159957 74 76 73
1.445768 1.351816 2.165133 74 76 73
1.453877 1.351780 2.165076 76 78 75
1.458739 1.348742 2.160210 76 78 75
1.466903 1.348775 2.160262 74 76 73
1.477666 1.351182 2.164119 74 76 73
1.493752 1.358406 2.175688 75 77 74
1.501886 1.358357 2.175610 74 76 73
1.518332 1.365787 2.187510 73 75 72
1.526553 1.365777 2.187494 74 76 73
1.555512 1.384221 2.217036 75 77 74
1.564199 1.384526 2.217523 76 78 75
1.573530 1.385394 2.218914 75 77 74
1.586976 1.389858 2.226063 75 77 74
1.595226 1.389747 2.225886 76 78 75
1.593748 1.381207 2.212208 75 77 74
1.602063 1.381199 2.212195 74 76 73
1.602417 1.374363 2.201245 74 76 73
1.610603 1.374279 2.201112 73 75 72
1.626142 1.380439 2.210978 72 74 71
1.644050 1.388537 2.223948 73 75 72
1.652331 1.388463 2.223829 73 75 72
1.682658 1.406822 2.253233 73 75 72
1.691128 1.406815 2.253222 73 75 72
1.710059 1.415466 2.267078 73 75 71
1.718452 1.415352 2.266897 72 74 73
1.733642 1.420810 2.275638 73 75 74
1.753049 1.429653 2.289801 74 76 75
1.761824 1.429782 2.290007 76 78 77
1.775453 1.433829 2.296489 76 78 77
1.783988 1.433743 2.296352 74 76 75
1.802306 1.441483 2.308748 74 76 75
1.810834 1.441355 2.308544 75 77 76
1.833656 1.452552 2.326477 77 79 78
1.853373 1.461195 2.340320 75 77 76
1.862195 1.461207 2.340339 75 77 76
1.863891 1.455653 2.331445 77 79 78
1.872607 1.455609 2.331373 77 79 78
1.866685 1.444239 2.313164 77 79 78
1.875277 1.444153 2.313025 77 79 78
1.877287 1.439021 2.304806 76 78 77
1.897381 1.447735 2.318763 76 78 77
1.906254 1.447847 2.318942 74 76 75
1.943579 1.469470 2.353574 74 76 75
1.952302 1.469369 2.353412 75 77 77
1.984926 1.487177 2.381934 72 74 71
1.993103 1.486591 2.380995 73 75 71
2.032235 1.508994 2.416877 72 74 71
2.035525 1.504703 2.410004 72 74 71
2.044378 1.504544 2.409751 71 73 70
2.014567 1.476058 2.364125 69 71 68
2.024489 1.476806 2.365324 68 70 67
2.012083 1.461331 2.340538 68 70 67
2.020412 1.460985 2.339984 65 67 64
2.013446 1.449630 2.321797 62 65 61
2.027261 1.453270 2.327628 67 69 67
2.037619 1.454411 2.329455 59 60 55
2.041542 1.450969 2.323942 57 57 52
2.050178 1.450892 2.323819 54 54 49
2.078165 1.464452 2.345537 48 49 44
2.084531 1.462726 2.342772 46 47 42
2.093545 1.462864 2.342994 44 45 40
2.064151 1.436276 2.300410 46 47 43
2.074899 1.437726 2.302731 66 67 60
2.164723 1.493728 2.392426 75 76 69
2.170435 1.491466 2.388804 81 82 76
2.184456 1.494910 2.394319 84 85 79
2.189032 1.491888 2.389479 83 84 78
2.146151 1.456679 2.333088 83 84 78
2.132218 1.441326 2.308498 85 86 80
2.138595 1.439771 2.306006 83 84 78
2.151012 1.442278 2.310023 86 87 82
2.156956 1.440443 2.307082 83 84 75
2.159573 1.436409 2.300622 85 86 77
2.169392 1.437178 2.301854 88 89 81
2.174975 1.435147 2.298600 87 88 80
2.188454 1.438321 2.303684 86 87 79
2.199369 1.439791 2.306038 90 91 83
2.220199 1.447715 2.318730 91 92 84
2.229024 1.447779 2.318833 91 92 84
2.247237 1.453918 2.328665 92 93 85
2.255782 1.453777 2.328439 93 94 86
2.221931 1.426421 2.284625 93 94 86
2.225845 1.423426 2.279827 93 94 86
2.234048 1.423186 2.279444 94 95 87
2.230371 1.415409 2.266988 94 95 87
2.238383 1.415081 2.266462 97 98 90
2.266607 1.427485 2.286329 95 96 88
2.274794 1.427224 2.285911 96 96 89
2.290442 1.431628 2.292964 97 97 91
2.294054 1.428504 2.287961 97 98 89
2.298271 1.425779 2.283596 97 99 86
2.311931 1.428910 2.288612 97 99 88
2.311340 1.423243 2.279535 95 97 86
2.295336 1.408163 2.255381 86 88 77
2.291387 1.400561 2.243206 87 89 78
2.313732 1.409028 2.256767 97 99 88
2.292910 1.391241 2.228279 105 107 95
2.307679 1.395101 2.234461 105 107 94
2.325634 1.400851 2.243670 105 107 94
2.406320 1.444210 2.313116 135 137 122
2.510335 1.501206 2.404404 144 146 131
2.504277 1.492205 2.389988 144 146 132
2.550389 1.514244 2.425286 147 148 136
2.527585 1.495353 2.395030 149 150 137
2.531281 1.492219 2.390009 148 151 135
2.579118 1.515036 2.426554 147 150 134
2.582159 1.511471 2.420845 149 151 136
2.574606 1.501752 2.405278 150 152 138
2.583649 1.501747 2.405271 152 154 140
2.607323 1.510217 2.418836 154 155 142
2.556673 1.475728 2.363597 154 155 142
2.562986 1.474243 2.361218 156 160 141
2.550141 1.461786 2.341267 157 160 141
2.558870 1.461740 2.341193 158 161 142
2.526736 1.438431 2.303861 160 163 145
2.537899 1.439845 2.306126 161 163 146
2.451332 1.385994 2.219874 158 161 144
2.318850 1.306635 2.092770 160 163 146
2.320317 1.303036 2.087006 163 166 149
2.312978 1.294533 2.073387 165 168 151
2.320674 1.294474 2.073292 167 170 153
2.378696 1.322393 2.118008 171 174 157
2.382769 1.320234 2.114550 171 174 157
2.402292 1.326621 2.124780 172 175 158
2.389251 1.315042 2.106235 172 175 158
2.397484 1.315211 2.106505 171 174 157
2.360945 1.290898 2.067565 171 174 157
2.368207 1.290615 2.067111 173 176 159
2.326293 1.263622 2.023879 175 178 161
2.335133 1.264285 2.024940 172 175 158
2.301768 1.242168 1.989516 170 173 156
2.301792 1.238153 1.983086 172 175 158
2.309379 1.238220 1.983193 172 175 158
2.272356 1.214445 1.945113 172 175 158
2.279399 1.214297 1.944877 173 176 159
2.241966 1.190533 1.906815 174 177 160
2.250023 1.191000 1.907563 174 177 160
2.225844 1.174455 1.881063 175 177 160
2.246247 1.181463 1.892288 174 177 160
2.253223 1.181387 1.892166 173 177 160
2.254524 1.178345 1.887295 174 178 161
2.261567 1.178314 1.887245 175 179 162
2.251316 1.169302 1.872810 176 180 163
2.258383 1.169312 1.872826 177 181 164
2.255003 1.163929 1.864206 178 182 165
2.265846 1.165900 1.867361 175 179 162
2.272871 1.165898 1.867359 177 181 164
2.271152 1.161426 1.860196 178 182 165
2.278156 1.161427 1.860198 177 181 164
2.205421 1.120903 1.795292 176 180 163
2.212951 1.121295 1.795920 176 180 163
2.195092 1.108860 1.776003 177 181 164
2.198635 1.107278 1.773469 177 181 164
2.205832 1.107540 1.773890 178 182 165
2.211107 1.106840 1.772768 177 181 164
2.217843 1.106872 1.772820 177 181 164
2.200576 1.094961 1.753742 178 182 165
2.207017 1.094882 1.753617 176 181 164
-0.137610 0.406168 0.646641 189 192 177
-0.135388 0.406804 0.647653 192 195 181
-0.132868 0.406549 0.647248 193 196 181
-0.130419 0.406508 0.647181 194 197 183
-0.127923 0.406314 0.646873 192 195 179
-0.126217 0.408671 0.650627 195 199 182
-0.123768 0.408671 0.650626 196 200 182
-0.120870 0.407155 0.648212 196 200 182
-0.118845 0.408582 0.650484 198 202 186
-0.116397 0.408580 0.650481 200 204 190
-0.113706 0.407707 0.649090 203 207 191
-0.111256 0.407680 0.649049 205 209 191
-0.109480 0.410178 0.653025 208 212 195
-0.107015 0.410150 0.652980 210 214 197
-0.104676 0.410612 0.653716 211 215 198
-0.102695 0.412538 0.656782 214 218 201
-0.100244 0.412620 0.656912 217 221 204
-0.097471 0.411349 0.654890 221 225 208
-0.094977 0.411221 0.654685 222 226 209
-0.091120 0.405030 0.644828 226 230 214
-0.088726 0.405178 0.645065 228 231 214
-0.085968 0.403625 0.642592 228 234 211
-0.084082 0.406195 0.646684 231 237 215
-0.081406 0.404988 0.644762 230 236 214
-0.080621 0.413405 0.658163 228 233 213
-0.078245 0.413939 0.659013 233 238 218
-0.067291 0.423025 0.673478 184 189 167
-0.064891 0.423900 0.674871 188 193 171
-0.062239 0.423135 0.673654 192 197 175
-0.059790 0.423751 0.674634 196 201 178
-0.057209 0.423435 0.674130 197 202 179
-0.054626 0.423081 0.673567 196 201 178
-0.052464 0.426103 0.678379 196 201 179
-0.049915 0.426137 0.678433 198 203 181
-0.047622 0.428471 0.682149 198 203 180
-0.045048 0.428409 0.682050 198 203 181
-0.042862 0.432247 0.688160 197 203 180
-0.040272 0.432246 0.688158 200 202 181
-0.037712 0.432578 0.688687 200 202 181
-0.035207 0.433653 0.690398 200 203 182
-0.032610 0.433662 0.690413 199 202 181
-0.017092 0.435459 0.693274 201 204 182
-0.014473 0.435148 0.692778 200 203 182
-0.011982 0.439395 0.699540 202 205 183
-0.009335 0.438697 0.698428 207 210 190
0.138899 0.911042 1.450427 61 61 59
0.144389 0.911248 1.450755 62 62 60
0.155771 0.947265 1.508096 64 64 62
0.164452 0.964902 1.536175 64 64 62
0.170212 0.964781 1.535981 64 64 62
0.181346 0.994131 1.582710 62 62 60
0.187306 0.994155 1.582746 62 62 60
0.191982 0.987571 1.572266 61 61 59
0.197888 0.987517 1.572179 62 62 60
0.203319 0.985168 1.568440 61 61 59
0.208916 0.983731 1.566152 60 60 58
0.214824 0.983794 1.566252 62 62 60
0.218884 0.975621 1.553240 64 64 62
0.224789 0.975882 1.553656 65 65 62
0.228838 0.968277 1.541548 65 65 63
0.234696 0.968514 1.541926 66 66 64
0.230307 0.927472 1.476584 65 65 63
0.237591 0.934266 1.487400 64 64 62
0.242846 0.932951 1.485307 65 65 63
0.254480 0.955648 1.521442 67 67 64
0.260211 0.955670 1.521477 66 66 63
0.278092 0.999353 1.591023 64 64 61
0.283811 0.998408 1.589518 66 66 63
0.296036 1.019919 1.623764 64 64 62
0.306090 1.033232 1.644960 65 65 63
0.312333 1.033407 1.645239 67 67 65
0.388718 1.022622 1.628067 67 67 65
0.394952 1.022898 1.628508 70 70 68
0.396961 1.012395 1.611786 68 68 66
0.403147 1.012698 1.612269 70 70 68
0.413281 1.022761 1.628290 71 71 69
0.419822 1.023770 1.629896 67 67 65
0.429041 1.031187 1.641705 66 66 64
0.436706 1.034710 1.647313 67 67 65
0.443197 1.035392 1.648399 65 65 63
0.446967 1.029787 1.639475 66 66 64
0.453190 1.029909 1.639670 67 67 65
0.456986 1.024586 1.631195 66 66 64
0.463480 1.025371 1.632445 65 65 63
0.467026 1.019702 1.623419 66 66 63
0.470142 1.013251 1.613149 65 65 62
0.476233 1.013296 1.613220 66 66 63
0.485234 1.019453 1.623022 66 66 63
0.491283 1.019330 1.622827 65 65 63
0.497968 1.020515 1.624713 67 67 64
0.504106 1.020565 1.624793 67 67 65
0.511904 1.023932 1.630154 67 67 65
0.518429 1.024704 1.631384 67 67 65
0.524567 1.024701 1.631379 65 68 65
0.536677 1.036232 1.649736 67 69 66
0.542857 1.036179 1.649651 67 69 66
0.547440 1.033111 1.644767 69 71 68
0.553461 1.032797 1.644267 66 68 65
0.558755 1.031149 1.641643 67 69 66
0.571285 1.042744 1.660103 69 71 68
0.577410 1.042522 1.659750 67 69 66
0.590408 1.054584 1.678953 68 70 67
0.596784 1.054686 1.679116 69 71 68
0.610211 1.067117 1.698906 67 69 66
0.616576 1.067069 1.698830 69 71 68
0.625489 1.071385 1.705702 69 71 68
0.635053 1.076717 1.714191 68 70 67
0.641500 1.076711 1.714181 68 70 67
0.654120 1.086964 1.730504 68 70 67
0.660711 1.087093 1.730710 69 71 68
0.674208 1.098472 1.748826 69 71 68
0.680649 1.098246 1.748466 68 70 67
0.697544 1.114732 1.774712 68 70 67
0.712179 1.127327 1.794765 69 71 68
0.718955 1.127361 1.794818 68 70 67
0.730772 1.135226 1.807340 68 70 67
0.737651 1.135346 1.807531 69 71 68
0.756534 1.153771 1.836864 67 69 66
0.763939 1.154516 1.838051 69 71 68
0.772013 1.156249 1.840809 71 73 70
0.784200 1.164057 1.853240 68 70 67
0.791028 1.163842 1.852898 69 71 68
0.797883 1.163671 1.852625 69 71 68
0.804829 1.163633 1.852566 68 71 67
0.820255 1.175753 1.871860 69 69 67
0.827275 1.175719 1.871807 72 71 70
0.831240 1.171380 1.864899 71 71 69
0.844744 1.180444 1.879328 71 71 69
0.852398 1.181250 1.880613 69 69 67
0.858699 1.180185 1.878916 70 70 68
0.866478 1.181150 1.880453 69 69 67
0.881078 1.191324 1.896650 69 69 67
0.888060 1.191114 1.896317 71 71 69
0.883783 1.175929 1.872140 72 72 70
0.898146 1.185589 1.887520 71 71 69
0.904843 1.185058 1.886674 69 69 67
0.918070 1.193020 1.899350 70 70 68
0.925961 1.193979 1.900877 72 72 70
0.944434 1.208464 1.923938 73 73 71
0.951601 1.208371 1.923791 72 72 70
0.962743 1.213289 1.931620 72 72 70
0.974399 1.218776 1.940356 70 70 68
0.981721 1.218802 1.940396 73 72 70
0.994404 1.225434 1.950955 71 74 70
1.001712 1.225393 1.950890 71 73 70
1.013435 1.230713 1.959361 71 73 70
1.020774 1.230672 1.959295 71 73 70
1.031236 1.234369 1.965181 71 73 70
1.042800 1.239324 1.973069 70 72 69
1.050173 1.239263 1.972972 71 73 70
1.063230 1.245863 1.983480 71 73 70
1.070712 1.245884 1.983513 72 74 71
1.085013 1.253785 1.996092 72 74 71
1.092515 1.253774 1.996074 74 76 73
1.104724 1.259128 2.004598 73 75 72
1.118150 1.265786 2.015199 73 75 72
1.125689 1.265737 2.015121 73 75 72
1.138251 1.271298 2.023973 71 73 70
1.145858 1.271288 2.023957 75 77 74
1.161060 1.279648 2.037267 73 75 72
1.168740 1.279663 2.037291 73 75 72
1.179341 1.282855 2.042372 74 76 73
1.192252 1.288502 2.051364 74 76 73
1.199985 1.288517 2.051387 74 76 73
1.212019 1.293120 2.058716 73 75 72
1.219904 1.293266 2.058948 76 78 75
1.231429 1.297245 2.065283 73 75 72
1.239174 1.297217 2.065238 74 76 73
1.251040 1.301476 2.072019 73 75 72
1.252008 1.294417 2.060780 74 76 73
1.259954 1.294613 2.061092 74 76 73
1.258482 1.285188 2.046088 74 76 73
1.266425 1.285435 2.046481 75 77 74
1.282225 1.293607 2.059491 73 75 72
1.289908 1.293540 2.059384 74 76 73
1.310981 1.306821 2.080528 73 75 72
1.339081 1.326908 2.112507 74 76 73
1.346978 1.326856 2.112424 74 76 73
1.358527 1.330381 2.118037 73 75 72
1.366433 1.330318 2.117936 74 76 73
1.382033 1.337703 2.129694 73 75 72
1.390017 1.337675 2.129649 74 76 73
1.410038 1.349163 2.147939 73 75 72
1.426011 1.356670 2.159890 74 76 73
1.434208 1.356735 2.159994 75 77 74
1.445712 1.359910 2.165049 75 77 74
1.453870 1.359920 2.165064 75 77 74
1.458759 1.356890 2.160240 75 77 74
1.466855 1.356859 2.160191 74 76 73
1.477582 1.359249 2.163996 73 75 72
1.493793 1.366630 2.175747 74 76 73
1.501916 1.366571 2.175654 74 76 73
1.518424 1.374101 2.187641 74 76 73
1.526618 1.374067 2.187587 74 76 73
1.555383 1.392449 2.216852 74 76 73
1.564012 1.392704 2.217258 75 77 74
1.574141 1.394286 2.219777 77 79 76
1.586936 1.398199 2.226007 76 78 75
1.595268 1.398160 2.225945 75 77 74
1.593694 1.389485 2.212133 75 77 74
1.602037 1.389501 2.212158 75 77 74
1.602525 1.382739 2.201394 75 77 74
1.610256 1.382264 2.200638 72 74 71
1.626103 1.388726 2.210925 73 75 72
1.643993 1.396857 2.223870 75 77 74
1.652331 1.396831 2.223829 72 74 71
1.682721 1.415354 2.253318 73 75 72
1.691122 1.415289 2.253214 73 75 72
1.710161 1.424082 2.267214 73 75 71
1.718532 1.423949 2.267001 72 74 73
1.734057 1.429716 2.276182 74 76 75
1.753142 1.438346 2.289922 74 76 75
1.761725 1.438318 2.289878 74 76 75
1.775383 1.442414 2.296400 75 77 76
1.784051 1.442435 2.296432 76 78 77
1.802238 1.450116 2.308661 76 78 77
1.810861 1.450063 2.308578 74 76 75
1.833249 1.460982 2.325961 74 76 75
1.853648 1.470219 2.340667 77 79 78
1.862484 1.470241 2.340702 77 79 78
1.863807 1.464361 2.331339 75 77 76
1.872632 1.464401 2.331404 77 79 78
1.866334 1.452671 2.312728 78 80 79
1.875367 1.452926 2.313135 78 80 79
1.876249 1.446894 2.303532 77 79 78
1.897497 1.456550 2.318905 76 78 77
1.905499 1.455997 2.318024 77 79 78
1.943777 1.478477 2.353814 73 75 74
1.952115 1.478084 2.353188 75 77 77
1.984287 1.495659 2.381168 73 75 72
1.993102 1.495549 2.380993 73 75 71
2.032215 1.518074 2.416854 73 75 72
2.035747 1.513937 2.410268 73 75 72
2.044373 1.513608 2.409744 71 73 70
2.014001 1.484537 2.363461 69 71 68
2.023581 1.485040 2.364262 69 71 68
2.012503 1.470446 2.341027 68 70 67
2.020812 1.470082 2.340448 68 70 67
2.013705 1.458555 2.322096 65 67 64
2.029506 1.463648 2.330205 62 65 62
2.035762 1.461844 2.327333 62 65 59
2.035452 1.455360 2.317010 59 61 54
2.042259 1.453999 2.314844 55 57 51
2.070719 1.468000 2.337133 53 55 49
2.077008 1.466231 2.334317 51 53 48
2.080802 1.462723 2.328732 47 48 42
2.062547 1.443810 2.298621 42 44 38
2.073784 1.445613 2.301493 44 45 38
2.074240 1.439918 2.292425 54 55 49
2.147772 1.484788 2.363861 69 70 63
2.194120 1.510573 2.404912 80 81 75
2.197326 1.506566 2.398533 84 85 79
2.149057 1.467443 2.336247 83 84 78
2.136565 1.452970 2.313205 82 83 77
2.141475 1.450399 2.309112 83 84 78
2.147505 1.448606 2.306257 80 81 75
2.154779 1.447662 2.304754 81 82 74
2.160894 1.445950 2.302029 84 85 77
2.168205 1.445049 2.300594 85 86 78
2.175596 1.444209 2.299256 86 87 79
2.189404 1.447617 2.304683 89 90 82
2.199000 1.448226 2.305652 89 90 82
2.218279 1.455181 2.316725 84 85 77
2.230216 1.457285 2.320074 91 92 84
2.246539 1.462226 2.327941 90 91 83
2.256264 1.462852 2.328937 93 94 86
2.220731 1.434243 2.283390 94 95 87
2.224849 1.431364 2.278808 93 94 86
2.233617 1.431488 2.279004 93 94 86
2.229577 1.423433 2.266180 94 95 87
2.237889 1.423296 2.265962 95 96 88
2.266294 1.435891 2.286014 94 95 88
2.273665 1.435113 2.284775 96 97 88
2.286494 1.437773 2.289011 96 97 88
2.300093 1.440897 2.293984 97 98 89
2.305703 1.439010 2.290980 97 99 87
2.315847 1.439957 2.292488 92 94 83
2.330137 1.443465 2.298073 93 95 84
2.287875 1.412045 2.248050 83 85 74
2.271899 1.386801 2.207861 94 96 84
2.431600 1.473508 2.345902 142 144 129
2.431414 1.468065 2.337237 157 159 144
2.488604 1.497180 2.383590 149 151 137
2.469317 1.480242 2.356623 144 147 131
2.531833 1.512286 2.407640 146 149 131
2.515214 1.497002 2.383307 149 152 135
2.519078 1.493976 2.378488 147 151 132
2.575093 1.521789 2.422768 151 155 135
2.580710 1.519728 2.419487 150 152 138
2.575348 1.511239 2.405972 152 154 140
2.585080 1.511635 2.406603 154 156 142
2.605390 1.518193 2.417043 156 157 144
2.555143 1.483733 2.362181 158 159 147
2.563985 1.483706 2.362139 159 160 148
2.549183 1.470044 2.340388 155 156 145
2.558302 1.470224 2.340674 156 159 144
2.524929 1.446066 2.302213 158 161 144
2.533526 1.446028 2.302153 159 162 145
2.440505 1.388189 2.210069 162 165 148
2.316170 1.312991 2.090352 162 165 148
2.318620 1.309931 2.085480 165 168 151
2.314732 1.303323 2.074960 167 170 153
2.317287 1.300376 2.070266 167 170 153
2.370424 1.325737 2.110643 169 172 155
2.382220 1.327885 2.114063 172 175 158
2.400041 1.333366 2.122789 171 174 157
2.389357 1.323027 2.106329 171 174 157
2.397132 1.322943 2.106196 171 174 157
2.360346 1.298349 2.067040 171 174 157
2.368191 1.298385 2.067098 173 176 159
2.327247 1.271760 2.024709 170 173 156
2.334992 1.271829 2.024818 172 175 158
2.301549 1.249535 1.989326 174 177 160
2.301838 1.245641 1.983126 173 176 159
2.309299 1.245640 1.983125 173 176 159
2.273019 1.222121 1.945681 172 175 158
2.279673 1.221763 1.945111 173 176 159
2.242713 1.198108 1.907452 175 178 161
2.250943 1.198668 1.908343 172 175 158
2.226631 1.181951 1.881728 173 176 159
2.247184 1.189079 1.893077 175 178 161
2.253713 1.188766 1.892578 176 181 164
2.254851 1.185619 1.887568 175 179 162
2.261752 1.185513 1.887400 176 180 163
2.251592 1.176494 1.873040 176 180 163
2.258451 1.176395 1.872882 176 180 163
2.255041 1.170964 1.864237 176 180 163
2.265950 1.172980 1.867446 177 181 164
2.272835 1.172907 1.867330 178 182 165
2.271191 1.168446 1.860227 179 183 166
2.277656 1.168171 1.859790 175 179 162
2.205957 1.127932 1.795728 177 181 164
2.213843 1.128508 1.796644 176 180 163
2.194970 1.115480 1.775904 176 180 163
2.197471 1.113362 1.772531 181 185 168
2.205356 1.113975 1.773508 178 182 165
2.210850 1.113381 1.772562 177 181 164
2.217626 1.113434 1.772646 177 181 164
2.200651 1.101598 1.753802 176 180 163
2.206968 1.101457 1.753577 177 181 164
-0.136416 0.405054 0.641027 191 196 174
-0.134527 0.406637 0.643532 194 199 176
-0.132077 0.406550 0.643395 192 197 174
-0.129966 0.407522 0.644933 194 200 176
-0.127524 0.407476 0.644859 195 199 180
-0.125943 0.410230 0.649218 194 198 181
-0.123514 0.410276 0.649292 197 201 183
-0.120838 0.409487 0.648042 198 202 184
-0.118420 0.409558 0.648154 200 204 188
-0.115966 0.409507 0.648073 202 206 192
-0.113457 0.409251 0.647670 203 207 190
-0.111063 0.409413 0.647925 207 211 193
-0.109145 0.411373 0.651028 210 214 197
-0.106696 0.411377 0.651033 211 215 198
-0.104381 0.411909 0.651875 214 218 201
-0.102270 0.413288 0.654058 215 219 202
-0.099810 0.413294 0.654068 219 223 205
-0.096875 0.411282 0.650883 222 226 209
-0.094455 0.411411 0.651088 222 226 209
-0.091381 0.408624 0.646677 226 230 213
-0.088949 0.408627 0.646681 226 230 213
-0.086368 0.407934 0.645584 229 233 217
-0.084878 0.412497 0.652806 229 233 217
-0.081580 0.408285 0.646140 232 238 216
-0.081521 0.420526 0.665513 232 237 217
-0.078946 0.420146 0.664911 219 224 205
-0.074847 0.425291 0.673053 197 202 178
-0.069305 0.422390 0.668463 194 200 177
-0.066775 0.422296 0.668314 187 193 170
-0.064254 0.422255 0.668248 194 200 177
-0.061764 0.422428 0.668523 191 196 174
-0.059400 0.423507 0.670229 197 202 179
-0.056869 0.423442 0.670127 196 201 178
-0.054593 0.425357 0.673157 197 202 180
-0.052500 0.428953 0.678849 198 203 181
-0.049952 0.429008 0.678935 198 203 180
-0.047653 0.431327 0.682606 198 203 180
-0.045084 0.431316 0.682589 198 203 180
-0.042750 0.433702 0.686364 198 203 180
-0.040167 0.433699 0.686359 198 201 179
-0.014328 0.433381 0.685856 203 209 185
0.138614 0.914619 1.447451 61 61 59
0.144069 0.914674 1.447537 63 63 61
0.155672 0.952334 1.507136 62 62 60
0.164875 0.973177 1.540123 62 62 60
0.170690 0.973286 1.540295 63 63 61
0.180431 0.995041 1.574724 64 64 62
0.186387 0.995204 1.574982 64 64 62
0.187841 0.972060 1.538354 61 61 59
0.193590 0.971857 1.538034 63 63 61
0.201551 0.982450 1.554798 63 63 61
0.207809 0.984378 1.557848 62 62 60
0.213680 0.984419 1.557914 63 63 61
0.220612 0.989216 1.565505 64 64 62
0.226491 0.989162 1.565420 65 65 62
0.227669 0.969104 1.533676 65 65 63
0.233396 0.968920 1.533385 66 66 63
0.232983 0.943870 1.493742 65 65 63
0.242076 0.957602 1.515474 65 65 63
0.247872 0.957962 1.516043 63 63 60
0.263105 0.993959 1.573011 64 64 61
0.268858 0.993342 1.572035 64 64 61
0.283566 1.025127 1.622337 67 67 64
0.289533 1.024640 1.621567 68 68 65
0.298631 1.035025 1.638001 68 68 65
0.303301 1.029952 1.629973 68 68 65
0.309475 1.030085 1.630183 67 67 64
0.376031 0.995172 1.574931 66 66 64
0.382126 0.995609 1.575623 68 68 66
0.392338 1.006599 1.593015 67 67 65
0.398348 1.006638 1.593077 66 66 64
0.409310 1.019004 1.612646 66 66 64
0.415614 1.019581 1.613559 68 68 66
0.429619 1.038762 1.643915 68 68 66
0.436836 1.041218 1.647803 67 67 65
0.442996 1.041124 1.647653 67 67 65
0.450242 1.043547 1.651488 67 67 65
0.456333 1.043264 1.651040 68 68 66
0.462187 1.042455 1.649760 67 67 65
0.468733 1.043206 1.650949 65 65 62
0.468266 1.028534 1.627729 66 66 64
0.469472 1.017869 1.610851 68 68 66
0.475661 1.018141 1.611281 66 66 64
0.478138 1.010561 1.599285 66 66 64
0.484212 1.010677 1.599469 68 68 66
0.497536 1.025738 1.623304 67 67 64
0.503685 1.025821 1.623436 67 67 65
0.511800 1.029856 1.629822 66 66 64
0.521185 1.036323 1.640056 67 66 65
0.527380 1.036369 1.640128 65 68 65
0.536484 1.042065 1.649143 66 68 65
0.542988 1.042637 1.650047 65 67 64
0.549234 1.042707 1.650159 70 72 69
0.555531 1.042871 1.650418 66 68 65
0.556304 1.032775 1.634440 66 68 65
0.570775 1.048055 1.658621 68 70 67
0.577017 1.048056 1.658623 68 70 67
0.594496 1.068248 1.690579 69 71 68
0.600812 1.068165 1.690448 68 70 67
0.618814 1.088645 1.722859 67 69 66
0.625273 1.088603 1.722791 68 70 67
0.632047 1.089105 1.723586 68 70 67
0.635686 1.084249 1.715901 68 70 67
0.642165 1.084285 1.715958 68 70 67
0.651162 1.088531 1.722678 68 70 67
0.657651 1.088541 1.722695 68 70 67
0.669183 1.096818 1.735793 69 71 68
0.675680 1.096762 1.735704 69 71 68
0.691326 1.111415 1.758893 68 70 67
0.704945 1.122560 1.776532 67 69 66
0.711692 1.122659 1.776688 68 70 67
0.725028 1.133051 1.793133 69 71 68
0.732035 1.133453 1.793771 67 69 66
0.749519 1.149921 1.819832 67 69 66
0.757346 1.151410 1.822188 67 69 66
0.767049 1.155697 1.828974 71 73 70
0.774400 1.156397 1.830082 68 70 67
0.781196 1.156263 1.829868 68 70 67
0.791218 1.160864 1.837150 71 73 70
0.798330 1.161153 1.837607 70 73 69
0.808704 1.166141 1.845501 72 71 69
0.815740 1.166271 1.845708 71 71 69
0.820638 1.163368 1.841113 71 71 69
0.832313 1.170042 1.851674 71 71 69
0.839137 1.169840 1.851355 69 69 67
0.850096 1.175360 1.860091 69 69 67
0.856993 1.175219 1.859867 71 71 69
0.873933 1.188741 1.881268 72 72 70
0.881256 1.189070 1.881789 70 70 68
0.885822 1.185703 1.876460 69 69 67
0.897631 1.192008 1.886439 70 70 68
0.904725 1.192002 1.886429 70 70 68
0.913756 1.194528 1.890426 70 70 68
0.920929 1.194604 1.890547 71 71 69
0.931492 1.199044 1.897574 69 69 67
0.938697 1.199126 1.897702 71 71 69
0.949265 1.203470 1.904578 71 71 69
0.963600 1.212490 1.918852 72 72 70
0.971179 1.212937 1.919560 74 73 71
0.983232 1.218924 1.929035 69 72 69
0.990611 1.219072 1.929268 70 72 69
1.004282 1.226905 1.941664 70 72 69
1.011565 1.226876 1.941619 69 71 68
1.017414 1.225121 1.938842 70 72 69
1.029684 1.231068 1.948253 71 73 70
1.037170 1.231251 1.948542 73 75 72
1.050486 1.238304 1.959705 72 74 71
1.057934 1.238390 1.959842 72 74 71
1.077058 1.252048 1.981456 73 75 72
1.084556 1.252096 1.981531 74 76 73
1.096173 1.256866 1.989081 73 75 72
1.107300 1.261014 1.995644 73 75 72
1.114863 1.261075 1.995741 74 76 73
1.124293 1.263232 1.999155 71 73 70
1.131590 1.262979 1.998755 73 75 72
1.148700 1.273610 2.015579 74 76 73
1.156258 1.273581 2.015532 73 75 72
1.168760 1.278962 2.024049 76 78 75
1.183093 1.286264 2.035605 73 75 72
1.190673 1.286178 2.035468 76 78 75
1.199327 1.287246 2.037158 72 74 71
1.206922 1.287169 2.037038 73 75 72
1.216672 1.289378 2.040534 74 76 73
1.224339 1.289366 2.040515 75 77 74
1.234490 1.291954 2.044609 74 76 73
1.242091 1.291857 2.044456 74 76 73
1.249788 1.291861 2.044462 74 76 73
1.265591 1.300192 2.057647 74 76 73
1.273426 1.300286 2.057795 75 77 74
1.286339 1.305532 2.066098 73 75 72
1.294157 1.305576 2.066167 73 75 72
1.311952 1.315623 2.082068 74 76 73
1.323422 1.319247 2.087803 74 76 73
1.331409 1.319377 2.088008 74 76 73
1.339469 1.319576 2.088323 73 75 72
1.347625 1.319868 2.088785 74 76 73
1.355981 1.320351 2.089549 74 76 73
1.364070 1.320569 2.089895 73 75 72
1.388226 1.336250 2.114712 73 75 72
1.408847 1.348370 2.133892 74 76 73
1.416888 1.348380 2.133908 75 77 74
1.433950 1.356928 2.147435 75 77 74
1.442060 1.356955 2.147478 75 77 74
1.447912 1.354869 2.144177 75 77 74
1.455960 1.354850 2.144147 76 78 75
1.468324 1.358824 2.150437 74 76 73
1.486164 1.367796 2.164635 74 76 73
1.494292 1.367779 2.164609 74 76 73
1.509187 1.373924 2.174334 74 76 73
1.517341 1.373899 2.174294 74 76 73
1.541503 1.388290 2.197069 74 76 73
1.549624 1.388160 2.196862 73 75 72
1.562965 1.392680 2.204016 75 77 74
1.576361 1.397203 2.211174 77 79 76
1.584566 1.397101 2.211012 76 78 75
1.589191 1.393860 2.205882 74 76 73
1.597458 1.393830 2.205835 75 77 74
1.604066 1.392360 2.203510 75 77 74
1.612389 1.392387 2.203552 74 76 73
1.625834 1.396815 2.210559 75 77 74
1.641781 1.403335 2.220878 72 74 71
1.650024 1.403238 2.220725 73 75 72
1.667938 1.411325 2.233523 72 74 71
1.676278 1.411270 2.233435 73 75 72
1.697069 1.421647 2.249858 73 75 71
1.705523 1.421636 2.249841 73 75 73
1.722066 1.428335 2.260442 72 74 74
1.745813 1.440914 2.280350 73 75 74
1.754505 1.441005 2.280494 74 76 75
1.768662 1.445562 2.287705 75 77 76
1.777284 1.445573 2.287723 75 77 76
1.794593 1.452615 2.298867 77 79 78
1.803262 1.452630 2.298891 74 76 75
1.819555 1.458757 2.308587 74 76 75
1.835786 1.464775 2.318112 76 78 77
1.844511 1.464777 2.318115 76 78 77
1.848415 1.460968 2.312086 76 78 77
1.856948 1.460837 2.311878 77 79 78
1.857649 1.454573 2.301965 79 81 80
1.866237 1.454515 2.301874 78 80 79
1.869688 1.450472 2.295476 76 78 77
1.885461 1.455982 2.304196 76 78 77
1.894449 1.456226 2.304582 76 78 77
1.922592 1.471124 2.328159 76 78 77
1.931644 1.471346 2.328511 72 74 74
1.961502 1.487342 2.353826 74 76 73
1.970350 1.487335 2.353813 74 76 72
2.009330 1.509971 2.389638 72 74 71
2.022514 1.513108 2.394601 71 73 70
2.031578 1.513147 2.394663 70 72 69
2.011672 1.491704 2.360729 69 71 68
2.020472 1.491642 2.360630 67 69 66
2.007308 1.475436 2.334984 69 71 68
2.015553 1.475040 2.334356 65 67 64
1.992396 1.451766 2.297524 65 67 63
1.996432 1.448422 2.292231 62 64 61
2.006639 1.449564 2.294039 63 65 62
1.987846 1.429837 2.262819 63 65 61
1.996707 1.430085 2.263212 59 61 58
2.017547 1.438873 2.277120 54 57 54
2.031576 1.442751 2.283257 52 54 51
2.051253 1.450590 2.295662 50 50 48
2.038759 1.435708 2.272110 45 45 43
2.066527 1.449185 2.293439 41 43 37
2.020400 1.410945 2.232921 43 45 39
2.027832 1.410270 2.231853 56 57 51
2.109688 1.461146 2.312367 68 69 63
2.116527 1.459861 2.310334 77 78 72
2.117062 1.454257 2.301466 84 85 78
2.121032 1.451047 2.296386 82 83 76
2.128264 1.450087 2.294867 81 82 77
2.138087 1.450893 2.296142 84 85 79
2.147192 1.451207 2.296639 83 84 76
2.159258 1.453512 2.300286 82 83 74
2.168477 1.453889 2.300883 85 86 77
2.162327 1.444000 2.285233 86 87 78
2.189120 1.456101 2.304385 85 86 77
2.196284 1.455102 2.302804 84 85 77
2.207016 1.456467 2.304962 87 88 79
2.216589 1.457057 2.305898 89 90 81
2.238983 1.466039 2.320112 89 90 82
2.247505 1.465902 2.319896 91 92 83
2.227709 1.447369 2.290565 92 93 85
2.228395 1.442235 2.282439 92 93 85
2.237333 1.442459 2.282795 94 95 87
2.247594 1.443532 2.284493 94 95 87
2.254953 1.442741 2.283240 95 96 88
2.272882 1.448691 2.292658 93 93 87
2.282057 1.449039 2.293208 95 96 85
2.323177 1.469592 2.325735 94 97 84
2.328584 1.467485 2.322399 92 94 82
2.311385 1.451199 2.296627 90 92 81
2.323416 1.453319 2.299981 87 89 78
2.323769 1.448145 2.291792 95 97 86
2.318273 1.439378 2.277919 87 89 78
2.348360 1.452687 2.298981 113 115 105
2.392810 1.464004 2.316891 136 138 124
2.532031 1.543560 2.442793 150 152 138
2.521848 1.531791 2.424169 150 152 139
2.558865 1.548673 2.450886 146 148 136
2.560837 1.544301 2.443966 147 149 135
2.590194 1.556414 2.463137 149 151 134
2.556298 1.530570 2.422236 149 152 136
2.565438 1.530585 2.422260 151 154 137
2.601335 1.546507 2.447458 151 154 137
2.610716 1.546608 2.447618 151 153 139
2.590012 1.528949 2.419671 153 155 142
2.600705 1.529883 2.421149 156 158 143
2.603156 1.525979 2.414971 156 160 140
2.554893 1.492477 2.361951 158 162 143
2.563742 1.492454 2.361915 158 162 143
2.518365 1.460973 2.312094 159 163 145
2.530207 1.462789 2.314969 158 161 144
2.500797 1.440825 2.280209 158 161 144
2.506753 1.439319 2.277825 160 163 146
2.365832 1.353776 2.142447 166 169 152
2.300836 1.312113 2.076512 164 167 150
2.305094 1.310092 2.073314 165 168 151
2.295926 1.300479 2.058101 168 171 154
2.303205 1.300216 2.057685 170 173 156
2.371066 1.334040 2.111214 169 172 155
2.379283 1.334194 2.111457 171 174 157
2.390720 1.336145 2.114544 171 174 157
2.390482 1.331580 2.107320 172 175 158
2.398818 1.331805 2.107677 173 176 159
2.343562 1.296840 2.052342 169 172 155
2.351144 1.296762 2.052218 171 174 157
2.305443 1.267392 2.005739 172 175 158
2.313828 1.267851 2.006465 172 175 158
2.276961 1.243592 1.968074 173 176 159
2.274764 1.238365 1.959800 172 175 158
2.282062 1.238322 1.959734 174 177 160
2.264290 1.224721 1.938209 174 177 160
2.271557 1.224707 1.938186 174 177 160
2.254167 1.211442 1.917193 175 178 161
2.260996 1.211235 1.916866 174 177 160
2.250349 1.201697 1.901772 175 178 161
2.264430 1.205383 1.907605 176 179 162
2.272323 1.205763 1.908206 178 182 165
2.252935 1.191709 1.885965 177 181 164
2.260326 1.191864 1.886210 176 180 163
2.257300 1.186542 1.877788 176 180 163
2.264626 1.186679 1.878004 176 180 163
2.262707 1.181984 1.870575 177 181 164
2.266240 1.180158 1.867685 177 181 164
2.273497 1.180277 1.867873 177 181 164
2.249156 1.164042 1.842180 177 181 164
2.256457 1.164232 1.842481 176 180 163
2.177969 1.120294 1.772945 176 180 163
2.184469 1.120206 1.772806 175 179 162
2.184333 1.116725 1.767298 175 179 162
2.202638 1.122665 1.776698 178 182 165
2.209162 1.122584 1.776569 178 182 165
2.240826 1.135238 1.796595 177 181 164
2.247588 1.135239 1.796597 178 182 165
2.226840 1.121386 1.774673 176 180 163
2.233559 1.121406 1.774705 177 180 163
-0.136568 0.407923 0.641745 190 198 180
-0.134731 0.409680 0.644510 190 198 180
-0.132141 0.409170 0.643708 195 198 183
-0.129979 0.409990 0.644997 196 198 183
-0.127528 0.409913 0.644876 197 200 183
-0.125958 0.412722 0.649295 198 201 184
-0.123526 0.412760 0.649356 199 202 185
-0.120855 0.411984 0.648134 200 202 184
-0.118416 0.411983 0.648133 200 203 187
-0.115954 0.411902 0.648005 203 207 193
-0.113487 0.411798 0.647841 206 210 194
-0.111047 0.411789 0.647828 207 211 194
-0.109139 0.413798 0.650988 209 213 195
-0.106688 0.413796 0.650985 212 216 198
-0.104372 0.414327 0.651820 215 219 201
-0.102263 0.415723 0.654016 217 221 203
-0.099813 0.415768 0.654087 219 223 205
-0.096932 0.413975 0.651267 223 227 209
-0.094494 0.414033 0.651357 225 229 211
-0.091206 0.410270 0.645438 226 230 213
-0.088910 0.410884 0.646404 225 229 212
-0.085864 0.407965 0.641811 226 230 213
-0.084204 0.411661 0.647626 229 233 217
-0.072208 0.427194 0.672062 194 199 178
-0.069354 0.425201 0.668928 190 195 172
-0.066948 0.425913 0.670048 194 199 177
-0.064343 0.425359 0.669176 194 199 177
-0.061784 0.425076 0.668731 195 200 178
-0.059398 0.426014 0.670206 196 201 178
-0.056872 0.425986 0.670162 198 203 180
-0.054590 0.427863 0.673116 197 202 179
-0.052495 0.431465 0.678781 196 201 178
-0.049945 0.431506 0.678846 198 203 181
-0.047656 0.433915 0.682637 198 203 180
-0.045085 0.433896 0.682607 197 202 180
-0.042751 0.436293 0.686377 199 205 182
-0.040169 0.436300 0.686388 198 201 180
0.138548 0.919628 1.446762 61 61 59
0.144029 0.919863 1.447130 62 62 60
0.155551 0.957261 1.505965 62 62 60
0.164956 0.979451 1.540876 64 64 62
0.170734 0.979338 1.540697 64 64 62
0.180447 1.001056 1.574864 64 64 62
0.186315 1.000743 1.574371 62 62 60
0.187806 0.977667 1.538068 64 64 62
0.193592 0.977655 1.538049 63 63 61
0.201573 0.988408 1.554966 62 62 60
0.207827 0.990329 1.557987 62 62 60
0.213711 0.990426 1.558141 63 63 61
0.220548 0.994818 1.565050 64 64 62
0.226412 0.994706 1.564874 66 66 64
0.227568 0.974441 1.532993 67 67 64
0.233437 0.974860 1.533652 64 64 61
0.232895 0.949130 1.493174 63 63 61
0.242121 0.963486 1.515759 65 65 62
0.247447 0.962015 1.513445 64 64 62
0.263177 1.000151 1.573441 65 65 63
0.269343 1.001063 1.574875 68 68 66
0.283545 1.031157 1.622218 66 66 64
0.289629 1.031085 1.622106 67 67 64
0.298601 1.041083 1.637835 65 65 62
0.303284 1.036027 1.629880 65 65 63
0.309399 1.035967 1.629785 64 64 62
0.376108 1.001302 1.575250 68 68 66
0.381856 1.000832 1.574512 67 67 65
0.392407 1.012770 1.593292 66 66 64
0.398235 1.012344 1.592622 67 67 65
0.409517 1.025589 1.613459 68 68 66
0.415548 1.025489 1.613302 67 67 65
0.429543 1.044763 1.643624 68 68 66
0.436833 1.047413 1.647793 67 67 65
0.443058 1.047469 1.647882 67 67 65
0.450221 1.049713 1.651411 67 67 65
0.456321 1.049450 1.650998 68 68 66
0.462188 1.048666 1.649763 67 67 65
0.468591 1.049101 1.650449 66 66 63
0.468264 1.034656 1.627724 67 67 64
0.469601 1.024212 1.611293 66 66 64
0.475702 1.024293 1.611420 67 67 65
0.478113 1.016526 1.599202 66 66 64
0.484110 1.016484 1.599135 66 66 64
0.497528 1.031831 1.623280 67 67 65
0.503674 1.031909 1.623401 67 67 65
0.511728 1.035845 1.629593 68 68 66
0.521158 1.042440 1.639970 67 66 64
0.527276 1.042336 1.639805 65 68 65
0.536582 1.048461 1.649442 66 68 65
0.542803 1.048488 1.649484 65 67 64
0.549231 1.048912 1.650150 67 69 66
0.555379 1.048795 1.649967 66 68 65
0.556402 1.039109 1.634729 65 67 64
0.570707 1.054169 1.658421 67 69 66
0.576888 1.054061 1.658252 67 69 66
0.594393 1.074422 1.690284 69 71 68
0.600812 1.074528 1.690450 68 70 67
0.618774 1.095058 1.722748 68 70 67
0.625274 1.095087 1.722794 68 70 67
0.632029 1.095559 1.723537 68 70 67
0.635713 1.090752 1.715973 68 70 67
0.642171 1.090753 1.715975 68 70 67
0.651116 1.094937 1.722557 67 69 66
0.657614 1.094962 1.722597 67 69 66
0.669206 1.103387 1.735852 68 70 67
0.675819 1.103520 1.736060 69 71 68
0.691337 1.118051 1.758921 69 71 68
0.704977 1.129298 1.776614 68 70 67
0.711708 1.129369 1.776727 69 71 68
0.724970 1.139708 1.792992 67 69 66
0.731933 1.140043 1.793519 68 70 67
0.750327 1.158016 1.821794 70 72 69
0.756868 1.157535 1.821037 69 71 68
0.766699 1.162050 1.828140 71 73 70
0.774523 1.163468 1.830371 68 70 67
0.781687 1.163879 1.831018 69 71 68
0.791215 1.167772 1.837142 68 70 67
0.798203 1.167882 1.837316 70 73 70
0.808837 1.173278 1.845804 72 71 69
0.815995 1.173584 1.846285 71 71 69
0.820724 1.170419 1.841306 71 71 69
0.832352 1.177064 1.851761 70 70 68
0.838258 1.175574 1.849416 73 73 71
0.849999 1.182224 1.859879 70 70 68
0.857759 1.183274 1.861530 68 68 66
0.874209 1.196198 1.881862 70 70 68
0.881061 1.195887 1.881373 71 71 69
0.885669 1.192558 1.876136 70 70 68
0.897633 1.199109 1.886441 69 69 67
0.904708 1.199078 1.886393 70 70 68
0.913728 1.201605 1.890368 71 71 69
0.920848 1.201613 1.890381 71 71 69
0.931441 1.206118 1.897469 69 69 67
0.938762 1.206351 1.897834 69 69 67
0.949206 1.210562 1.904459 71 71 69
0.963573 1.219676 1.918798 72 71 69
0.970635 1.219477 1.918484 70 69 68
0.983262 1.226221 1.929094 69 72 69
0.990533 1.226235 1.929116 70 72 69
1.004193 1.234102 1.941493 69 71 68
1.011570 1.234189 1.941629 71 73 70
1.017563 1.232598 1.939126 72 74 71
1.029751 1.238480 1.948380 72 74 71
1.037125 1.238530 1.948458 72 74 71
1.050723 1.245960 1.960147 73 75 72
1.058115 1.245978 1.960176 73 75 72
1.077031 1.259472 1.981405 72 74 71
1.084472 1.259456 1.981379 72 74 71
1.096138 1.264312 1.989018 72 74 71
1.107305 1.268530 1.995655 72 74 71
1.114739 1.268444 1.995519 72 74 71
1.124079 1.270513 1.998774 74 76 73
1.131604 1.270517 1.998780 73 75 72
1.148692 1.281186 2.015565 73 75 72
1.156356 1.281274 2.015704 73 75 72
1.168802 1.286625 2.024121 72 74 71
1.183056 1.293884 2.035542 73 75 72
1.190616 1.293775 2.035370 72 74 71
1.199304 1.294886 2.037118 74 76 73
1.206983 1.294901 2.037141 74 76 73
1.216638 1.297021 2.040477 75 77 74
1.224388 1.297096 2.040596 75 77 74
1.234473 1.299630 2.044581 75 77 74
1.242068 1.299527 2.044419 75 77 74
1.249721 1.299484 2.044352 76 78 75
1.265609 1.307954 2.057676 77 79 76
1.273363 1.307964 2.057693 74 76 73
1.286346 1.313314 2.066109 74 76 73
1.294104 1.313297 2.066082 76 78 75
1.311982 1.323489 2.082117 73 75 72
1.323501 1.327183 2.087928 74 76 73
1.331513 1.327337 2.088171 73 75 72
1.339573 1.327537 2.088485 76 78 75
1.347777 1.327877 2.089020 73 75 72
1.356187 1.328415 2.089866 73 75 72
1.363927 1.328294 2.089676 75 77 74
1.388245 1.344227 2.114742 75 77 74
1.408842 1.356396 2.133885 75 77 74
1.416882 1.356405 2.133899 75 77 74
1.433944 1.365003 2.147426 74 76 73
1.442009 1.364988 2.147402 74 76 73
1.447818 1.362849 2.144038 76 78 75
1.455952 1.362911 2.144135 76 78 75
1.468223 1.366823 2.150289 75 77 74
1.486143 1.375922 2.164604 75 77 74
1.494298 1.375931 2.164618 73 75 72
1.509200 1.382118 2.174352 74 76 73
1.517386 1.382122 2.174358 74 76 73
1.541031 1.396131 2.196397 73 75 72
1.549685 1.396481 2.196948 74 76 73
1.562399 1.400467 2.203218 73 75 72
1.576262 1.405436 2.211035 75 77 74
1.585032 1.405834 2.211662 77 79 76
1.589287 1.402245 2.206016 77 79 76
1.597580 1.402237 2.206004 76 78 75
1.604057 1.400645 2.203498 75 77 74
1.612303 1.400605 2.203435 76 78 75
1.625803 1.405106 2.210516 74 76 73
1.641451 1.411408 2.220432 72 74 71
1.650083 1.411645 2.220804 72 74 71
1.667859 1.419662 2.233417 75 77 74
1.676286 1.419681 2.233446 74 76 73
1.696902 1.429972 2.249636 71 73 70
1.705425 1.430021 2.249712 72 74 72
1.722274 1.437015 2.260716 74 76 75
1.745870 1.449542 2.280424 74 76 75
1.754468 1.449557 2.280447 74 76 75
1.768729 1.454226 2.287792 76 78 77
