ply
format ascii 1.0
element vertex 1219
property float x
property float y
property float z
property uchar red
property uchar green
property uchar blue
end_header
1.186445 -3.667652 5.019583 57 62 59
1.207831 -3.675684 5.030576 54 58 55
1.214357 -3.638941 4.980289 56 63 59
1.252568 -3.696820 5.059504 43 50 46
1.337544 -3.888951 5.322456 66 71 69
1.455156 -3.683490 5.041259 199 203 205
1.399656 -3.453630 4.726671 207 211 212
2.009488 -3.664346 5.015059 135 140 136
1.960414 -3.298186 4.513929 129 131 145
1.950110 -3.252877 4.451919 124 127 141
1.966494 -3.252477 4.451371 120 123 137
1.956269 -3.208440 4.391102 121 124 138
1.984833 -3.228225 4.418180 126 128 146
1.945402 -3.138005 4.294704 130 132 144
1.941576 -3.106224 4.251208 124 124 137
1.928558 -3.060372 4.188454 121 120 117
2.014288 -3.120482 4.270721 162 159 83
2.112172 -3.147505 4.307706 54 54 49
2.126385 -3.144732 4.303911 56 55 49
2.117492 -3.108086 4.253756 53 52 45
2.135600 -3.111322 4.258185 58 59 53
2.129548 -3.079573 4.214733 64 65 58
2.131664 -3.060013 4.187963 69 70 67
2.151023 -3.065312 4.195216 66 68 66
2.150683 -3.042665 4.164221 65 67 64
2.164390 -3.040074 4.160674 68 69 67
2.187083 -3.050051 4.174329 67 70 67
2.207941 -3.057345 4.184311 53 59 54
2.216658 -3.047844 4.171309 41 46 42
2.206172 -3.012255 4.122601 42 47 43
2.238432 -3.035122 4.153896 42 47 43
2.216488 -2.984681 4.084863 46 51 46
2.231260 -2.984034 4.083977 42 48 42
2.259389 -3.001137 4.107386 51 57 51
1.902535 -2.366462 3.238762 67 71 70
1.950678 -2.411015 3.299737 66 71 70
1.833111 -2.251480 3.081397 65 69 68
1.825182 -2.227755 3.048927 59 61 60
1.766175 -2.142367 2.932065 58 59 59
1.782877 -2.149301 2.941554 58 58 59
1.744266 -2.089878 2.860227 57 58 57
1.708175 -2.034178 2.783995 50 55 55
1.732748 -2.050956 2.806959 49 53 53
1.730998 -2.036564 2.787261 53 55 53
1.698191 -1.986022 2.718089 35 38 36
1.742284 -2.025481 2.772093 52 52 49
1.836632 -2.097768 2.871026 166 168 158
1.866701 -2.107504 2.884351 164 162 141
1.879629 -2.109925 2.887663 134 131 114
1.922939 -2.134053 2.920685 119 115 100
1.970118 -2.174078 2.975464 110 103 87
1.953066 -2.143173 2.933167 124 118 101
1.960142 -2.138940 2.927374 121 110 99
2.008067 -2.143416 2.933500 51 44 27
2.023077 -2.136129 2.923527 57 48 33
2.044377 -2.147032 2.938448 60 49 38
2.076063 -2.145754 2.936699 99 93 72
2.083885 -2.142520 2.932273 107 99 82
2.232426 -2.247986 3.076615 40 34 32
2.258330 -2.262425 3.096377 42 37 33
2.261789 -2.254347 3.085321 46 42 41
2.275063 -2.256083 3.087698 49 45 42
2.280900 -2.250464 3.080007 50 46 51
2.315534 -2.273173 3.111086 50 47 55
2.328142 -2.274138 3.112408 56 53 62
2.325453 -2.260227 3.093369 61 59 72
2.331027 -2.254444 3.085454 56 54 65
2.346011 -2.257775 3.090013 57 56 70
2.355641 -2.255945 3.087508 56 55 67
2.348053 -2.237725 3.062572 56 55 71
2.332351 -2.211986 3.027345 59 58 72
2.335219 -2.204022 3.016445 67 65 81
2.313557 -2.173093 2.974116 68 66 81
2.328320 -2.176510 2.978793 70 69 86
2.277616 -2.118987 2.900066 70 68 86
2.286554 -2.117235 2.897668 69 68 85
2.305157 -2.124405 2.907482 69 71 87
2.281949 -2.093158 2.864715 70 71 88
2.299478 -2.099394 2.873250 75 76 96
2.350181 -2.135718 2.922964 73 74 94
2.356282 -2.131362 2.917003 70 71 91
2.352861 -2.118473 2.899362 71 72 92
2.372811 -2.126649 2.910552 71 72 91
2.327592 -2.076607 2.842064 69 70 90
2.312521 -2.053796 2.810844 69 70 90
2.323281 -2.054028 2.811162 68 69 90
2.291197 -2.016549 2.759868 68 69 90
2.301283 -2.016355 2.759603 69 70 90
2.314419 -2.018823 2.762981 69 70 91
2.324940 -2.019000 2.763222 68 69 90
2.332872 -2.016934 2.760396 69 70 90
2.324387 -2.000757 2.738255 67 68 88
2.334093 -2.000311 2.737645 67 68 89
2.310481 -1.971440 2.698132 66 67 86
2.320554 -1.971436 2.698127 68 69 87
2.297136 -1.943103 2.659350 69 70 88
2.306935 -1.942991 2.659197 66 67 85
2.299922 -1.928782 2.639749 62 63 82
2.264104 -1.890640 2.587548 62 65 86
2.269203 -1.886844 2.582352 57 59 79
2.265238 -1.875576 2.566931 51 56 77
2.254712 -1.858993 2.544235 50 53 72
2.272570 -1.865853 2.553625 55 62 91
2.233276 -1.818331 2.488585 82 90 117
2.156994 -1.748943 2.393620 93 103 128
2.180766 -1.760920 2.410012 94 103 130
2.179460 -1.752632 2.398669 103 113 146
2.178045 -1.744324 2.387299 102 112 143
2.164017 -1.726024 2.362253 102 114 145
2.179233 -1.731103 2.369204 110 122 152
2.223811 -1.759370 2.407891 112 124 157
2.224612 -1.752916 2.399057 110 122 158
2.236356 -1.755101 2.402048 110 122 157
2.256313 -1.763688 2.413800 108 123 156
2.268345 -1.766037 2.417015 106 121 154
2.265184 -1.756585 2.404080 111 120 156
2.276562 -1.758439 2.406616 113 122 159
2.292508 -1.763792 2.413943 110 120 153
2.271527 -1.740804 2.382481 95 107 139
2.252346 -1.719370 2.353146 81 91 124
2.223259 -1.690569 2.313729 75 82 115
2.242938 -1.698930 2.325172 75 83 117
2.238401 -1.688955 2.311520 80 93 112
2.241015 -1.684430 2.305327 85 98 125
2.613882 -1.906107 2.608716 240 243 224
2.519772 -1.784274 2.441975 163 169 134
2.526867 -1.782845 2.440019 166 172 138
2.539370 -1.785229 2.443281 163 168 135
2.545854 -1.783379 2.440749 165 170 140
2.527492 -1.764200 2.414500 163 167 132
2.530472 -1.760000 2.408753 167 171 137
2.537224 -1.758445 2.406625 170 174 142
2.540932 -1.754799 2.401634 163 167 137
2.468106 -1.556185 2.129810 96 106 101
2.458317 -1.545034 2.114548 109 120 113
-1.627068 -1.015990 1.397637 230 240 221
-1.621933 -1.016043 1.397710 229 238 219
-1.628554 -1.023485 1.407947 228 237 217
-1.623226 -1.023441 1.407887 228 237 218
-1.632454 -1.032604 1.420492 230 238 219
-1.627174 -1.032620 1.420514 229 237 219
-1.633099 -1.039770 1.430350 229 237 217
-1.623864 -1.037283 1.426929 229 238 216
-1.618459 -1.037234 1.426862 228 236 216
-1.609092 -1.034638 1.423291 229 237 213
-1.603777 -1.034638 1.423291 230 237 214
-1.576581 -1.020476 1.403808 230 238 214
-1.572047 -1.020936 1.404442 228 237 212
-1.548969 -1.009316 1.388457 224 233 209
-5.251808 -4.921353 6.770015 212 216 190
-5.155632 -4.854602 6.678189 213 217 191
-5.133932 -4.857668 6.682407 214 218 193
-5.196221 -4.940622 6.796522 216 220 195
-5.170743 -4.940531 6.796397 217 221 196
-4.604022 -4.420743 6.081355 216 220 195
-4.559764 -4.399952 6.052755 219 223 198
-4.176991 -4.050677 5.572277 220 224 200
-3.839300 -3.741841 5.147429 220 224 198
-3.820712 -3.742463 5.148286 222 226 198
-3.702022 -3.644545 5.013585 222 226 199
-3.683789 -3.645031 5.014254 223 227 200
-3.526983 -3.507706 4.825345 225 229 202
-3.509801 -3.508546 4.826499 222 226 199
-3.601377 -3.618673 4.977995 224 228 201
-3.805193 -3.843309 5.287014 225 230 199
-3.779224 -3.836991 5.278322 225 230 200
-3.980435 -4.062467 5.588496 229 234 204
-3.962014 -4.064982 5.591956 230 236 206
-4.010524 -4.136556 5.690416 234 237 208
-3.986530 -4.133713 5.686505 236 238 210
-3.930413 -4.097353 5.636487 232 234 205
-3.950154 -4.140105 5.695299 230 233 201
-3.931099 -4.142440 5.698510 232 235 204
-3.890467 -4.121940 5.670309 232 235 204
-3.893600 -4.147837 5.705935 231 233 203
-3.832431 -4.105142 5.647202 233 237 203
-3.829420 -4.124614 5.673988 232 236 203
-3.635239 -3.937253 5.416246 227 231 198
-3.667083 -3.993967 5.494264 230 234 201
-3.627976 -3.973608 5.466259 229 233 201
-3.688902 -4.063202 5.589508 228 231 199
-3.677518 -4.073716 5.603971 225 231 198
-3.785811 -4.217680 5.802013 225 233 199
-3.768805 -4.222904 5.809200 226 233 200
-3.758111 -4.235302 5.826255 226 233 200
-3.724895 -4.222317 5.808392 230 237 205
-3.708206 -4.228022 5.816240 229 236 204
-3.767864 -4.321357 5.944635 230 237 205
-3.740135 -4.314979 5.935862 226 233 202
-3.730263 -4.329250 5.955494 230 237 205
-3.709713 -4.331226 5.958212 228 236 204
-3.544548 -4.163363 5.727293 228 236 203
-3.204736 -3.787079 5.209661 227 235 202
-3.213129 -3.820191 5.255211 230 238 203
-3.328088 -3.981188 5.476685 231 236 204
-3.319721 -3.995735 5.496697 234 236 206
-3.483305 -4.218720 5.803444 234 237 206
-3.475419 -4.235523 5.826559 234 236 205
-3.694340 -4.530692 6.232605 236 238 208
-4.040936 -4.987175 6.860563 233 235 204
-4.018848 -4.991565 6.866601 236 237 206
-4.029046 -5.101899 7.018381 239 238 211
-4.090383 -5.213486 7.171885 234 232 206
-3.911237 -5.051307 6.948785 251 249 225
-3.889599 -5.056916 6.956500 255 254 229
-3.855631 -5.046461 6.942118 254 254 228
-3.829250 -5.045862 6.941295 254 254 227
-3.722464 -4.938582 6.793715 252 252 223
-3.704559 -4.948557 6.807438 250 248 220
-3.740866 -5.031588 6.921658 254 247 222
-3.863511 -5.232709 7.198329 253 248 221
-3.742139 -5.103838 7.021049 251 252 220
-3.966090 -5.447452 7.493738 251 252 221
-3.898130 -5.392158 7.417674 253 241 216
-3.810306 -5.464860 7.517686 235 225 201
-3.810026 -5.505023 7.572935 234 224 198
-3.801517 -5.533808 7.612533 223 214 186
-3.671782 -5.552587 7.638366 244 236 209
-3.529122 -5.378640 7.399077 241 235 208
-3.591547 -5.516978 7.589381 237 231 203
-3.628818 -5.618573 7.729138 214 210 178
-3.501257 -5.464536 7.517240 230 225 194
-3.483764 -5.481184 7.540141 226 226 196
-3.533444 -5.604652 7.709990 238 235 206
-3.444330 -5.508190 7.577292 234 235 204
-3.525337 -5.684441 7.819750 243 243 213
-3.455908 -5.619039 7.729779 246 247 217
-3.459416 -5.672124 7.802806 245 246 214
-3.423426 -5.660800 7.787228 244 247 220
-3.351739 -5.589748 7.689486 243 246 221
-3.303116 -5.556265 7.643426 240 244 219
-3.274606 -5.556326 7.643510 239 244 218
-3.288695 -5.629306 7.743904 240 244 220
-3.256580 -5.623791 7.736317 239 242 222
-3.240035 -5.645305 7.765913 238 242 221
-3.217413 -5.656525 7.781348 240 246 227
-0.981900 -2.039434 2.805530 58 63 53
-0.966960 -2.030065 2.792641 50 55 46
-0.955503 -2.027885 2.789642 61 66 60
-0.942861 -2.023116 2.783081 63 67 62
-0.928842 -2.015250 2.772261 67 70 70
-0.920967 -2.020689 2.779742 69 72 71
-0.917137 -2.035228 2.799743 68 71 68
-0.901528 -2.023661 2.783830 73 76 73
-0.915303 -2.078553 2.859343 62 68 69
-0.907443 -2.085029 2.868251 57 63 63
-0.702078 -1.804922 2.482925 190 194 198
-0.671191 -1.748612 2.405462 196 201 205
-0.692657 -1.829018 2.516072 194 198 202
-0.667861 -1.787796 2.459365 190 194 198
-0.701696 -1.904562 2.619994 180 184 187
-0.705204 -1.941152 2.670329 167 172 175
-0.687018 -1.946136 2.677184 166 172 175
-1.218567 -3.906725 5.374250 190 193 128
-1.209815 -3.943623 5.425010 187 189 156
-1.184515 -3.926918 5.402029 190 193 101
-1.155530 -3.897204 5.361154 187 192 111
-1.123772 -3.856925 5.305743 191 192 108
-1.146349 -4.005035 5.509490 190 193 111
-1.118302 -3.978457 5.472929 197 194 109
-1.079195 -3.910808 5.379868 201 199 115
-1.055348 -3.896944 5.360795 202 198 109
-1.039863 -3.914018 5.384284 203 198 109
-0.976729 -3.748879 5.157112 202 198 107
-0.971333 -3.803165 5.231790 198 196 106
-0.912661 -3.886133 5.345924 195 188 96
-0.893970 -3.891682 5.353557 193 187 95
-0.897969 -3.998516 5.500522 194 188 95
-0.877183 -3.997409 5.498999 195 188 97
-0.842213 -3.930062 5.406353 199 192 103
-0.812611 -3.885067 5.344458 200 194 105
-0.754143 -3.696328 5.084820 199 196 111
-0.728372 -3.662234 5.037919 200 196 110
-0.702960 -3.628187 4.991083 197 194 107
-0.392674 -3.690200 5.076390 196 190 129
-0.380978 -3.761913 5.175041 184 176 115
-0.331735 -3.863699 5.315063 192 180 116
-0.315709 -3.911072 5.380232 205 195 128
-0.283964 -3.756921 5.168175 218 210 140
-0.274494 -3.896482 5.360160 219 209 141
-0.241238 -4.834815 6.650970 76 61 32
-0.191415 -4.831183 6.645974 73 54 42
-0.159579 -4.627744 6.366114 73 53 45
-0.133482 -4.548638 6.257293 67 48 37
-0.110572 -4.567596 6.283372 73 48 47
-0.087187 -4.571852 6.289227 77 52 49
-0.064828 -4.652982 6.400832 72 55 45
-0.041062 -4.668721 6.422484 72 54 44
-0.017459 -4.773695 6.566890 67 49 43
0.032422 -4.899223 6.739573 84 80 69
0.100856 -5.970230 8.212893 169 164 155
0.132037 -5.993293 8.244619 165 160 151
0.154965 -5.703860 7.846464 155 156 145
0.185284 -5.735278 7.889684 154 155 143
0.195411 -5.218789 7.179180 158 159 150
0.221633 -5.204930 7.160115 158 158 150
0.231202 -4.845079 6.665090 163 164 156
0.229752 -4.346701 5.979500 157 158 149
0.317350 -4.648500 6.394667 101 106 98
0.336932 -4.589911 6.314069 96 100 93
0.372810 -4.746472 6.529441 102 106 98
0.393863 -4.706645 6.474654 104 108 101
0.625265 -4.812654 6.620483 130 133 122
0.654627 -4.846981 6.667706 110 113 102
0.675820 -4.820529 6.631318 122 125 114
0.694610 -4.779405 6.574746 136 138 128
0.746272 -4.959557 6.822570 152 154 144
0.723783 -4.651286 6.398499 126 128 117
0.736190 -4.304649 5.921652 42 44 35
0.767259 -4.355472 5.991565 55 57 44
0.812543 -4.481824 6.165381 53 55 42
0.823169 -4.415315 6.073888 54 56 45
0.868080 -4.531338 6.233494 44 46 34
0.955045 -4.731509 6.508858 79 79 74
0.909779 -4.395376 6.046459 86 87 78
0.957020 -4.511627 6.206378 69 71 63
0.970661 -4.364517 6.004008 61 64 45
0.984760 -3.969422 5.460500 82 91 36
1.007583 -3.979014 5.473695 57 59 43
1.017039 -3.936493 5.415201 75 80 53
1.006618 -3.820191 5.255212 68 71 49
1.044633 -3.888641 5.349374 66 69 45
1.035090 -3.780810 5.201037 73 77 57
1.163510 -3.819792 5.254662 83 85 75
1.180055 -3.809848 5.240983 73 77 55
1.199949 -3.810866 5.242384 60 64 72
1.184818 -3.702401 5.093174 51 55 60
1.200307 -3.691539 5.078232 50 53 55
1.216228 -3.682319 5.065549 50 52 54
1.223676 -3.648124 5.018508 51 56 57
1.324648 -3.889575 5.350658 44 48 49
1.313851 -3.800535 5.228171 45 50 50
1.395491 -3.977582 5.471725 46 51 52
1.429142 -4.014705 5.522792 38 42 40
1.468104 -3.745736 5.152787 217 220 220
1.409151 -3.548802 4.881878 210 214 212
1.462003 -3.634876 5.000285 210 215 209
1.406300 -3.452287 4.749107 214 219 215
1.421458 -3.446036 4.740508 215 217 214
1.431369 -3.427376 4.714839 215 217 214
1.465292 -3.465965 4.767924 206 209 199
1.754933 -3.661602 5.037050 202 205 193
1.826163 -3.769812 5.185908 204 206 195
1.921900 -3.730083 5.131254 82 88 78
1.981736 -3.595269 4.945799 132 139 133
1.932306 -3.441439 4.734185 151 158 155
1.963079 -3.314289 4.559271 107 114 131
1.985331 -3.323034 4.571302 113 120 135
1.962941 -3.257545 4.481212 114 122 140
1.979085 -3.256570 4.479871 117 126 145
1.972769 -3.218963 4.428138 122 127 147
1.989566 -3.219383 4.428715 126 131 154
1.941553 -3.115790 4.286209 122 123 137
1.941134 -3.089643 4.250240 116 113 127
1.965596 -3.078235 4.234546 123 121 54
2.005211 -3.115210 4.285411 155 154 97
1.966547 -3.030952 4.169501 174 172 76
2.032218 -3.107560 4.274887 162 160 75
2.300329 -3.436547 4.727455 34 37 51
2.149005 -3.186025 4.382826 54 54 50
2.154967 -3.170712 4.361762 54 54 49
2.119691 -3.095411 4.258174 52 52 46
2.142117 -3.104865 4.271179 56 56 55
2.136247 -3.073469 4.227990 62 62 60
2.127480 -3.038398 4.179744 70 72 70
2.138929 -3.032498 4.171628 69 71 70
2.143771 -3.017384 4.150837 71 73 71
2.148021 -3.001661 4.129208 75 76 74
2.184191 -3.030449 4.168809 67 71 68
2.210436 -3.045155 4.189039 50 56 53
2.226155 -3.045256 4.189179 39 45 42
2.209351 -3.001177 4.128542 39 45 41
2.245007 -3.028477 4.166097 39 45 42
2.219462 -2.973409 4.090343 45 48 50
2.230355 -2.967578 4.082322 44 48 48
2.254151 -2.978876 4.097864 45 50 49
1.845356 -2.283606 3.141422 62 67 66
1.922881 -2.364510 3.252717 59 64 63
1.817413 -2.220789 3.055008 60 63 63
1.829338 -2.221415 3.055870 62 64 63
1.770905 -2.137125 2.939917 59 61 60
1.782143 -2.137436 2.940344 57 59 54
1.741835 -2.076297 2.856240 55 56 52
1.709248 -2.025051 2.785744 54 56 52
1.736032 -2.044340 2.812278 55 57 53
1.725040 -2.019180 2.777666 49 51 44
1.717552 -1.998398 2.749078 41 43 38
1.744272 -2.017427 2.775256 41 44 36
1.838737 -2.089438 2.874316 163 162 157
1.859936 -2.089134 2.873898 167 171 151
1.879113 -2.098564 2.886870 132 133 114
1.956700 -2.148235 2.955200 99 94 81
1.956951 -2.136460 2.939001 96 92 77
2.009393 -2.133869 2.935438 59 55 44
2.002747 -2.115270 2.909853 45 43 30
2.010620 -2.112125 2.905525 51 48 39
2.089415 -2.159926 2.971283 99 99 83
2.082051 -2.140943 2.945168 100 99 86
2.089915 -2.137736 2.940757 102 102 90
2.258088 -2.273907 3.128080 39 35 31
2.244047 -2.248137 3.092630 37 34 37
2.260570 -2.253093 3.099448 42 38 39
2.255660 -2.236746 3.076960 41 40 45
2.266369 -2.235974 3.075898 44 44 47
2.285759 -2.243731 3.086569 55 53 62
2.313397 -2.259466 3.108214 61 57 68
2.331802 -2.266072 3.117301 61 58 69
2.323076 -2.246375 3.090206 58 56 68
2.331542 -2.243417 3.086137 54 53 64
2.345587 -2.245829 3.089454 54 55 68
2.355824 -2.244589 3.087749 56 56 68
2.346911 -2.225205 3.061083 56 55 70
2.329870 -2.198339 3.024125 61 60 73
2.332467 -2.190172 3.012890 68 67 82
2.293425 -2.143173 2.948237 69 68 82
2.311457 -2.149703 2.957219 71 70 87
2.234485 -2.068234 2.845148 68 67 85
2.246029 -2.069081 2.846312 65 65 82
2.248560 -2.061655 2.836097 64 65 83
2.251323 -2.054510 2.826268 63 64 83
2.269439 -2.061377 2.835715 64 65 86
2.355982 -2.130046 2.930178 68 69 90
2.373026 -2.135536 2.937731 69 70 91
2.357463 -2.111767 2.905033 66 67 88
2.373444 -2.116343 2.911328 67 68 89
2.327281 -2.065717 2.841685 68 69 89
2.312488 -2.043269 2.810804 67 68 88
2.323089 -2.043360 2.810930 68 69 89
2.290379 -2.005525 2.758883 69 70 90
2.300723 -2.005561 2.758932 69 70 89
2.313731 -2.007908 2.762160 69 70 89
2.324329 -2.008152 2.762496 68 69 88
2.332979 -2.006717 2.760522 67 68 87
2.324123 -1.990305 2.737945 66 67 86
2.334545 -1.990472 2.738175 67 68 87
2.310481 -1.961362 2.698131 65 66 84
2.320377 -1.961210 2.697921 66 67 84
2.296228 -1.932408 2.658300 67 68 86
2.307384 -1.933437 2.659715 67 67 85
2.304562 -1.922795 2.645075 64 65 83
2.256827 -1.874930 2.579231 58 61 78
2.274933 -1.881939 2.588873 57 58 75
2.268591 -1.868751 2.570731 54 61 75
2.245111 -1.841616 2.533402 46 53 60
2.275650 -1.858832 2.557086 58 65 95
2.236324 -1.811505 2.491980 84 91 124
2.162347 -1.744322 2.399560 92 102 137
2.190639 -1.759850 2.420922 91 101 134
2.162268 -1.729919 2.379747 93 106 137
2.178130 -1.735476 2.387392 95 107 139
2.150783 -1.706700 2.347806 99 115 147
2.168474 -1.713751 2.357507 105 120 152
2.224580 -1.750982 2.408723 107 120 155
2.234931 -1.752045 2.410185 107 120 155
2.241491 -1.750139 2.407563 106 118 153
2.268959 -1.764507 2.427328 107 117 152
2.276024 -1.762958 2.425198 108 119 154
2.269096 -1.750625 2.408231 110 119 157
2.273583 -1.747162 2.403467 112 122 160
2.299687 -1.760272 2.421502 112 123 156
2.252900 -1.711002 2.353725 74 86 117
2.224073 -1.682544 2.314577 66 79 111
2.252875 -1.697735 2.335473 75 87 119
2.233378 -1.676551 2.306332 82 93 109
2.252497 -1.684407 2.317139 79 91 117
2.509758 -1.774522 2.441105 167 174 152
2.510888 -1.768896 2.433366 166 171 147
2.522433 -1.770620 2.435738 164 169 146
2.529710 -1.769348 2.433987 159 165 143
2.543945 -1.772933 2.438919 153 159 138
2.549827 -1.770692 2.435837 156 160 133
2.560039 -1.771464 2.436898 156 160 134
2.538906 -1.744437 2.399720 154 159 130
2.509583 -1.718224 2.363660 129 135 105
2.632476 -1.706331 2.347299 105 112 108
2.455103 -1.530211 2.105021 119 129 116
-1.617384 -1.004754 1.389319 228 238 219
-1.612190 -1.004751 1.389314 229 238 219
-1.613052 -1.008534 1.394545 228 238 218
-1.607831 -1.008526 1.394535 228 237 218
-1.610437 -1.013444 1.401334 229 239 219
-1.605024 -1.013330 1.401177 227 237 218
-1.611488 -1.020739 1.411422 227 236 216
-1.613006 -1.025054 1.417388 227 237 215
-1.607689 -1.025039 1.417367 227 237 217
-1.602930 -1.025381 1.417840 227 235 212
-1.597770 -1.025468 1.417960 228 236 212
-1.582283 -1.018905 1.408886 228 236 213
-1.580703 -1.021284 1.412175 227 235 213
-1.550961 -1.005422 1.390243 225 234 211
-4.585392 -4.234026 5.854578 212 216 191
-4.563282 -4.233799 5.854265 212 216 191
-4.586344 -4.275682 5.912178 212 216 190
-4.616209 -4.324342 5.979463 213 217 191
-4.595325 -4.325705 5.981347 214 218 193
-4.628916 -4.378610 6.054502 214 218 193
-4.613313 -4.385273 6.063715 216 220 195
-4.274347 -4.083106 5.645894 217 221 196
-4.270750 -4.099895 5.669109 217 221 196
-3.918286 -3.780273 5.227154 220 224 200
-3.648155 -3.537280 4.891157 219 223 197
-3.630499 -3.537876 4.891980 219 223 196
-3.683269 -3.607454 4.988189 221 225 198
-3.663471 -3.606303 4.986598 222 226 199
-3.660465 -3.621756 5.007966 223 227 200
-3.642219 -3.622211 5.008594 222 226 199
-3.796032 -3.794667 5.247057 224 228 202
-3.840611 -3.859152 5.336223 226 231 200
-3.811902 -3.850284 5.323961 223 228 198
-4.005808 -4.067359 5.624120 229 234 204
-3.986785 -4.069381 5.626916 230 235 205
-3.936791 -4.039645 5.585800 231 236 207
-3.921661 -4.045557 5.593975 233 237 209
-3.872106 -4.015831 5.552870 232 237 207
-3.875467 -4.040959 5.587616 231 235 203
-3.859003 -4.045576 5.593999 231 235 204
-3.910320 -4.121689 5.699244 231 235 206
-3.899251 -4.132516 5.714216 230 233 204
-3.629452 -3.867745 5.348105 232 236 202
-3.621427 -3.880548 5.365808 234 238 205
-3.285216 -3.539869 4.894736 226 229 197
-3.343544 -3.622878 5.009517 229 233 200
-3.322954 -3.620828 5.006682 227 231 198
-3.353966 -3.675301 5.082005 229 233 200
-3.495873 -3.852607 5.327173 228 234 200
-3.542910 -3.926791 5.429751 226 233 198
-3.593713 -4.006028 5.539316 224 231 195
-3.444389 -3.861803 5.339888 224 230 191
-2.908251 -3.419063 4.727692 231 237 202
-2.896583 -3.426146 4.737486 233 239 203
-3.053306 -3.633718 5.024505 240 245 211
-2.970038 -3.556478 4.917703 247 250 223
-3.044722 -3.691566 5.104494 248 249 231
-3.983968 -5.152995 7.125278 251 252 225
-3.974037 -5.174713 7.155309 255 255 226
-3.950573 -5.178986 7.161217 255 255 225
-3.711188 -4.898326 6.773136 253 253 223
-3.684739 -4.896794 6.771019 252 251 221
-3.514853 -4.703304 6.503469 253 249 220
-3.470872 -4.676770 6.466781 250 245 215
-3.437823 -4.664697 6.450087 253 250 217
-3.582505 -4.895315 6.768972 253 250 218
-3.559940 -4.899052 6.774140 250 246 214
-3.842594 -5.325878 7.364331 233 230 199
-3.798691 -5.302986 7.332677 234 230 199
-3.841908 -5.402262 7.469950 228 223 193
-3.928378 -5.564256 7.693947 232 227 193
-3.871274 -5.523777 7.637976 237 231 196
-3.749541 -5.389795 7.452712 240 234 200
-3.700484 -5.359060 7.410214 241 235 201
-3.637300 -5.307249 7.338572 239 234 200
-3.592974 -5.282374 7.304177 239 234 201
-3.650344 -5.407777 7.477578 241 235 202
-3.628014 -5.416132 7.489130 243 236 204
-3.636924 -5.471616 7.565850 248 242 209
-3.558661 -5.395794 7.461008 246 243 208
-3.605133 -5.509397 7.618092 232 228 194
-3.686317 -5.678276 7.851607 213 214 178
-3.572596 -5.547230 7.670404 218 217 181
-3.591056 -5.620965 7.772362 220 222 190
-3.485791 -5.500660 7.606011 219 219 187
-3.496504 -5.562898 7.692070 224 224 191
-3.465211 -5.558784 7.686380 233 233 200
-3.395699 -5.492777 7.595110 243 245 213
-3.434621 -5.602537 7.746880 244 246 214
-3.361145 -5.529260 7.645557 242 245 215
-3.338420 -5.538931 7.658930 242 245 216
-3.303779 -5.528829 7.644961 241 245 218
-3.273587 -5.526060 7.641131 240 244 218
-3.210875 -5.467864 7.560661 239 242 218
-3.181345 -5.465641 7.557588 238 241 219
-3.013328 -5.223326 7.222528 238 242 220
-2.985338 -5.221549 7.220070 238 244 223
-2.909557 -5.135388 7.100933 241 246 225
-0.992591 -2.029392 2.806131 50 54 56
-0.986358 -2.038168 2.818267 46 50 52
-0.981247 -2.049477 2.833905 52 56 58
-0.972432 -2.053211 2.839068 50 54 56
-0.958192 -2.045449 2.828334 49 54 55
-0.947371 -2.044892 2.827564 48 53 53
-0.949446 -2.072472 2.865700 48 53 53
-0.939462 -2.074057 2.867893 56 61 66
-0.927456 -2.071165 2.863893 55 59 63
-0.931165 -2.103710 2.908894 60 57 62
-0.919875 -2.102735 2.907546 52 51 55
-0.668399 -1.732392 2.395457 195 199 200
-0.690424 -1.813756 2.507962 191 196 197
-0.653353 -1.739974 2.405940 194 198 199
-0.683737 -1.846282 2.552937 186 190 191
-0.714043 -1.955385 2.703799 167 171 173
-0.699088 -1.970152 2.724218 164 164 166
-1.193763 -3.871306 5.353030 183 191 165
-1.188838 -3.921000 5.421743 184 185 100
-1.160004 -3.892191 5.381908 184 186 113
-1.138474 -3.887311 5.375161 185 184 104
-1.150051 -3.997326 5.527282 182 182 105
-1.130821 -4.002325 5.534195 185 182 101
-1.116745 -4.026093 5.567060 188 186 105
-1.075572 -3.951217 5.463526 192 188 102
-1.054027 -3.946948 5.457622 194 190 103
-1.009738 -3.855663 5.331398 196 191 102
-0.990919 -3.859917 5.337281 198 192 102
-0.921925 -3.664889 5.067607 198 192 101
-0.907739 -3.684129 5.094210 197 191 100
-0.908004 -3.764093 5.204782 198 192 101
-0.923761 -3.913189 5.410943 197 191 99
-0.903572 -3.913273 5.411058 195 190 98
-0.889956 -3.942475 5.451437 196 191 99
-0.869880 -3.943764 5.453220 195 190 99
-0.839707 -3.898237 5.390268 196 192 105
-0.818348 -3.892393 5.382187 199 195 107
-0.751833 -3.666072 5.069243 194 193 107
-0.716876 -3.585916 4.958407 194 192 105
-0.694017 -3.563625 4.927585 194 191 110
-0.554252 -3.384430 4.679804 243 240 197
-0.536314 -3.381527 4.675789 254 254 217
-0.507712 -3.308925 4.575399 241 240 199
-0.500808 -3.377614 4.670379 253 253 219
-0.447828 -3.129289 4.327009 242 238 197
-0.393316 -3.677245 5.084692 199 192 128
-0.377166 -3.705144 5.123269 193 185 120
-0.330552 -3.830143 5.296111 198 190 124
-0.309767 -3.817742 5.278964 203 193 129
-0.290245 -3.820297 5.282497 216 204 141
-0.272226 -3.844443 5.315884 214 203 138
-0.157543 -4.545210 6.284867 83 63 47
-0.134926 -4.574198 6.324950 85 65 46
-0.106515 -4.377398 6.052825 78 57 48
-0.085465 -4.458539 6.165022 80 59 48
-0.062232 -4.443660 6.144449 80 58 46
-0.039996 -4.524263 6.255902 82 59 47
-0.016627 -4.522743 6.253800 75 56 45
0.031400 -4.720355 6.527047 85 82 68
0.062973 -5.329354 7.369138 134 130 115
0.095798 -5.641664 7.800982 165 161 149
0.125316 -5.658992 7.824944 165 161 148
0.147575 -5.403956 7.472293 157 153 144
0.178928 -5.510075 7.619029 161 156 147
0.189472 -5.034204 6.961021 155 155 144
0.215549 -5.036060 6.963588 156 157 145
0.231744 -4.831489 6.680717 162 161 152
0.251590 -4.735416 6.547873 143 142 134
0.283254 -4.859087 6.718877 130 130 121
0.288049 -4.539227 6.276592 107 108 98
0.302282 -4.405037 6.091043 88 88 80
0.322115 -4.365525 6.036408 88 88 83
0.348421 -4.413172 6.102292 95 95 89
0.387859 -4.611088 6.375959 107 107 98
0.666037 -5.100136 7.052187 108 110 99
0.654370 -4.820188 6.665091 117 119 108
0.674056 -4.783241 6.614003 121 123 112
0.685392 -4.691750 6.487494 137 139 128
0.724223 -4.630207 6.402395 125 127 117
0.817534 -4.486185 6.203250 44 47 38
0.832101 -4.440295 6.139796 50 52 39
0.945676 -4.911025 6.790695 54 56 42
0.999633 -5.055647 6.990671 64 66 54
0.994893 -4.666071 6.451987 68 70 60
0.980072 -3.773919 5.218368 77 83 63
0.954216 -3.602718 4.981640 68 73 53
0.977649 -3.620596 5.006361 68 74 53
0.998884 -3.629819 5.019114 76 82 61
1.182130 -3.734985 5.164532 72 73 73
1.143022 -3.553444 4.913507 52 53 49
1.160679 -3.551322 4.910573 43 44 41
1.187463 -3.576758 4.945745 51 53 48
1.212870 -3.597329 4.974188 54 55 54
1.237556 -3.615175 4.998865 51 51 50
1.264425 -3.638772 5.031494 50 53 53
1.305978 -3.703317 5.120743 54 58 58
1.353065 -3.781465 5.228801 61 65 62
1.350985 -3.721934 5.146486 49 54 50
1.388626 -3.771969 5.215671 45 49 47
1.403491 -3.759611 5.198583 39 42 42
1.425595 -3.526147 4.875762 228 232 229
1.393687 -3.403747 4.706514 223 227 225
1.428958 -3.446420 4.765520 227 227 224
1.446193 -3.445080 4.763667 217 219 217
1.961984 -3.608412 4.989514 128 132 137
2.008193 -3.624548 5.011826 131 139 145
1.958614 -3.179448 4.396365 127 131 137
1.976399 -3.181647 4.399407 131 136 143
1.935752 -3.090519 4.273400 126 127 126
2.022163 -3.125405 4.321638 146 144 96
1.976817 -3.031127 4.191276 160 156 76
2.200945 -3.296481 4.558193 79 67 21
2.234973 -3.321754 4.593139 37 41 50
2.108194 -3.109462 4.299593 54 55 49
2.139368 -3.131589 4.330189 53 53 47
2.084628 -3.028567 4.187737 52 51 44
2.101888 -3.030903 4.190967 59 60 57
2.092355 -2.994855 4.141121 70 70 68
2.113447 -3.002849 4.152174 83 84 80
2.135465 -3.012033 4.164873 85 87 82
2.143765 -3.001874 4.150826 81 83 79
2.154404 -2.995113 4.141478 77 78 74
2.166464 -2.990410 4.134974 65 67 63
2.181219 -2.989467 4.133670 48 51 48
2.185979 -2.974934 4.113575 43 45 41
2.186094 -2.954328 4.085082 51 53 49
2.153002 -2.889442 3.995362 57 59 56
2.216306 -2.953926 4.084527 44 51 49
1.899908 -2.339036 3.234290 61 63 63
1.867804 -2.284984 3.159549 59 60 60
1.819427 -2.211828 3.058394 58 59 58
1.834607 -2.216368 3.064672 59 61 56
1.764425 -2.118365 2.929159 57 59 55
1.777340 -2.120723 2.932419 56 57 54
1.755896 -2.082305 2.879297 55 57 54
1.726035 -2.034433 2.813102 50 58 52
1.741373 -2.040094 2.820930 52 59 54
1.741181 -2.027603 2.803658 52 59 55
1.749653 -2.025288 2.800457 48 54 51
1.754882 -2.019271 2.792137 50 57 50
1.896595 -2.144112 2.964760 150 153 153
1.913316 -2.150461 2.973539 176 181 171
1.877962 -2.098544 2.901752 161 167 154
2.028037 -2.190405 3.028771 69 67 53
1.988962 -2.136287 2.953940 57 56 41
2.038740 -2.177673 3.011167 58 55 38
2.021970 -2.147911 2.970014 61 58 40
2.007859 -2.121285 2.933197 57 54 42
2.009096 -2.111074 2.919077 48 44 31
2.041263 -2.133297 2.949806 48 44 37
2.068286 -2.149936 2.972813 57 53 49
2.113848 -2.173958 3.006029 116 115 99
2.071701 -2.119355 2.930528 113 112 98
2.092138 -2.129015 2.943885 99 98 86
2.249932 -2.254054 3.116782 39 36 33
2.246628 -2.239159 3.096186 43 37 44
2.255836 -2.236824 3.092957 42 35 40
2.291213 -2.260328 3.125458 42 41 47
2.301887 -2.259348 3.124102 45 43 47
2.276536 -2.223197 3.074114 56 56 63
2.291654 -2.226731 3.079001 61 61 67
2.308918 -2.232304 3.086707 59 57 68
2.290228 -2.203234 3.046511 56 54 69
2.303194 -2.204755 3.048614 54 52 66
2.325683 -2.215331 3.063238 53 52 67
2.338867 -2.216984 3.065524 56 54 68
2.352062 -2.218632 3.067801 57 57 74
2.320970 -2.178689 3.012572 64 64 79
2.336242 -2.182446 3.017766 68 67 82
2.318337 -2.155322 2.980261 70 68 82
2.329247 -2.155118 2.979978 73 71 88
2.312255 -2.129222 2.944172 69 66 84
2.327104 -2.132754 2.949055 64 64 82
2.359840 -2.152569 2.976454 62 64 81
2.310967 -2.098105 2.901144 64 65 82
2.316960 -2.093729 2.895094 69 70 87
2.285083 -2.055333 2.842001 64 65 82
2.295021 -2.054727 2.841163 69 70 86
2.290860 -2.041562 2.822960 68 69 85
2.299503 -2.039877 2.820629 68 69 85
2.266073 -2.001055 2.766948 66 67 83
2.290725 -2.013640 2.784351 65 66 83
2.303163 -2.015425 2.786819 68 69 86
2.288232 -1.993352 2.756297 69 70 86
2.298635 -1.993446 2.756427 67 68 85
2.335577 -2.016453 2.788240 68 69 86
2.346211 -2.016642 2.788502 68 69 86
2.332529 -1.996022 2.759990 66 67 85
2.307115 -1.965589 2.717908 67 68 86
2.317311 -1.965627 2.717961 67 68 86
2.304116 -1.945911 2.690698 65 66 84
2.313660 -1.945486 2.690111 64 65 84
2.299128 -1.924908 2.661657 65 66 85
2.305566 -1.921988 2.657620 65 66 86
2.321737 -1.927172 2.664788 64 66 86
2.282861 -1.886815 2.608984 61 64 83
2.284906 -1.880479 2.600223 53 55 75
2.259643 -1.851817 2.560591 45 51 72
2.263278 -1.846979 2.553901 50 55 69
2.301266 -1.870099 2.585870 56 63 101
2.235932 -1.801883 2.491544 80 88 125
2.188057 -1.755993 2.428090 87 96 133
2.221964 -1.775845 2.455540 84 92 130
2.188102 -1.741594 2.408180 85 96 132
2.194005 -1.739143 2.404791 92 102 138
2.174812 -1.716901 2.374037 108 121 156
2.184511 -1.717556 2.374942 108 121 156
2.177178 -1.704868 2.357398 111 121 156
2.172627 -1.694452 2.342995 111 120 155
2.183347 -1.695982 2.345111 108 118 153
2.210524 -1.710232 2.364815 108 117 153
2.214333 -1.706362 2.359463 110 119 155
2.242860 -1.721494 2.380387 107 117 152
2.239713 -1.712291 2.367662 115 124 161
2.274394 -1.731967 2.394869 103 114 145
2.253232 -1.709132 2.363293 82 93 126
2.266789 -1.712706 2.368236 71 82 110
2.257989 -1.699426 2.349873 76 86 112
2.272541 -1.703756 2.355860 84 94 119
2.274028 -1.698296 2.348310 78 84 99
2.634926 -1.693505 2.341686 153 163 151
-1.617436 -0.999598 1.389364 228 237 218
-1.612184 -0.999559 1.389310 228 237 218
-1.613105 -1.003359 1.394592 228 237 218
-1.607695 -1.003233 1.394416 227 236 217
-1.610381 -1.008175 1.401285 228 237 218
-1.604850 -1.007988 1.401025 227 236 217
-1.611064 -1.015201 1.411051 226 235 215
-1.612940 -1.019718 1.417330 227 236 214
-1.608107 -1.020011 1.417736 229 238 218
-1.603387 -1.020377 1.418245 230 236 214
-1.597471 -1.019981 1.417695 226 233 210
-1.581272 -1.012996 1.407986 226 233 211
-1.576500 -1.013308 1.408420 230 238 215
-1.549498 -0.999287 1.388931 226 234 211
-4.583055 -4.210014 5.851595 211 215 190
-4.561201 -4.210014 5.851595 212 216 191
-4.587946 -4.255088 5.914243 213 217 192
-4.615705 -4.301541 5.978810 213 217 192
-4.592761 -4.300966 5.978010 214 218 192
-4.622936 -4.350371 6.046680 213 217 192
-4.609762 -4.359269 6.059047 217 221 196
-4.281878 -4.069178 5.655843 217 221 197
-4.260437 -4.068873 5.655419 218 222 194
-3.952045 -3.793153 5.272190 218 222 194
-3.649210 -3.520031 4.892572 221 225 198
-3.631062 -3.520151 4.892739 222 226 199
-3.681753 -3.587347 4.986135 221 225 198
-3.663986 -3.588184 4.987299 221 225 198
-3.660822 -3.603404 5.008453 222 226 199
-3.641465 -3.602760 5.007557 223 227 200
-3.794408 -3.773456 5.244812 225 229 202
-3.840164 -3.838776 5.335602 224 230 198
-3.814698 -3.833210 5.327866 224 229 199
-3.995017 -4.035453 5.608969 227 232 202
-3.980867 -4.042357 5.618564 229 234 204
-3.934714 -4.016664 5.582852 231 235 204
-3.916346 -4.019211 5.586393 233 237 205
-3.873387 -3.996414 5.554707 233 237 206
-3.877988 -4.022706 5.591251 230 236 203
-3.860772 -4.026530 5.596565 229 234 203
-3.916945 -4.107350 5.708900 230 236 206
-3.932903 -4.146656 5.763531 228 234 205
-3.818462 -4.048151 5.626616 231 236 203
-3.488515 -3.739515 5.197638 229 235 203
-3.484746 -3.756377 5.221074 227 233 201
-3.615351 -3.919092 5.447236 220 225 193
-3.667403 -4.020768 5.588556 220 224 193
-3.703149 -4.083196 5.675327 226 230 199
-3.659427 -4.058216 5.640606 230 234 204
-2.906409 -3.399251 4.724697 224 231 201
-3.070133 -3.634874 5.052195 227 233 203
-2.947544 -3.511315 4.880457 218 222 194
-3.103126 -3.742947 5.202407 223 223 202
-3.987605 -5.131063 7.131781 245 246 222
-3.971396 -5.144570 7.150555 255 255 232
-3.946412 -5.146814 7.153674 255 255 226
-3.714616 -4.877532 6.779394 255 255 226
-3.694808 -4.884819 6.789521 255 255 227
-3.522699 -4.689461 6.517989 253 253 223
-3.473643 -4.656333 6.471943 248 248 218
-3.413945 -4.608376 6.405287 250 249 218
-3.625898 -4.929023 6.850962 249 249 218
-3.629578 -4.969091 6.906652 244 240 209
-3.806431 -5.248511 7.295025 249 246 214
-3.771369 -5.237655 7.279936 250 247 215
-3.887509 -5.438155 7.558615 246 243 211
-3.868773 -5.451532 7.577209 244 241 210
-3.798941 -5.392575 7.495263 246 243 212
-3.665341 -5.241554 7.285355 251 248 217
-3.616074 -5.209773 7.241183 253 252 220
-3.517848 -5.106446 7.097566 253 252 223
-3.492031 -5.107456 7.098970 253 252 224
-3.565509 -5.254822 7.303797 253 252 223
-3.556686 -5.282230 7.341892 253 252 223
-3.574378 -5.349749 7.435738 252 251 220
-3.533866 -5.330529 7.409023 245 244 213
-3.649101 -5.547791 7.711000 227 225 194
-3.714828 -5.692643 7.912334 201 202 170
-3.605311 -5.614135 7.803214 200 201 166
-3.368080 -5.419968 7.533337 235 238 206
-3.441872 -5.585371 7.763234 242 245 214
-3.349394 -5.481475 7.618827 241 245 214
-3.339298 -5.511776 7.660944 241 246 215
-3.304814 -5.502001 7.647356 242 246 217
-3.273531 -5.497429 7.641002 239 243 216
-3.209317 -5.436988 7.556993 237 241 214
-3.181036 -5.436887 7.556853 238 241 215
-3.014007 -5.197522 7.224154 237 241 215
-2.987508 -5.198360 7.225319 237 242 219
-2.914937 -5.118316 7.114063 238 243 218
-1.020747 -2.054488 2.855580 41 48 36
-0.993961 -2.021699 2.810006 40 43 35
-0.985569 -2.026021 2.816013 56 55 52
-0.978308 -2.032785 2.825415 54 53 50
-0.967122 -2.031454 2.823564 57 57 54
-0.953353 -2.024608 2.814049 55 56 52
-0.944236 -2.027599 2.818206 53 54 50
-0.941730 -2.045013 2.842410 57 59 54
-0.930700 -2.044103 2.841146 58 59 54
-0.922561 -2.049595 2.848778 56 56 51
-0.928784 -2.087493 2.901454 55 56 56
-0.911971 -2.073901 2.882562 60 62 60
-0.913325 -2.101792 2.921328 52 54 52
-0.670130 -1.727909 2.401660 193 197 198
-0.695007 -1.816365 2.524607 191 196 196
-0.647639 -1.715849 2.384898 196 201 201
-0.683406 -1.835857 2.551700 189 193 194
-0.716228 -1.951239 2.712071 165 170 170
-0.698385 -1.958008 2.721479 161 162 165
-1.217640 -3.863640 5.370162 190 195 146
-1.195544 -3.857060 5.361016 186 192 169
-1.186211 -3.892132 5.409763 179 179 103
-1.162846 -3.881578 5.395094 179 180 118
-1.142673 -3.881497 5.394981 178 179 100
-1.149541 -3.974920 5.524831 177 179 103
-1.128918 -3.974957 5.524883 180 178 99
-1.114828 -3.998425 5.557503 180 178 101
-1.078205 -3.940437 5.476903 185 182 102
-1.053498 -3.924593 5.454882 186 184 104
-1.012970 -3.848030 5.348464 189 185 103
-0.989978 -3.836337 5.332211 191 186 103
-0.927064 -3.666287 5.095855 191 186 106
-0.904742 -3.653002 5.077390 191 187 108
-0.906937 -3.740257 5.198669 194 189 110
-0.918214 -3.869602 5.378448 194 189 110
-0.896921 -3.864405 5.371225 193 188 110
-0.888883 -3.917388 5.444868 193 187 111
-0.868672 -3.917948 5.445645 190 185 109
-0.839953 -3.879239 5.391842 190 187 112
-0.818849 -3.874664 5.385483 192 189 113
-0.750166 -3.639055 5.058006 194 192 117
-0.717413 -3.570068 4.962119 195 193 117
-0.695293 -3.551739 4.936643 192 187 134
-0.649184 -3.406531 4.734816 198 194 132
-0.558075 -3.390172 4.712077 249 250 195
-0.513355 -3.328430 4.626261 254 253 213
-0.392842 -3.653841 5.078557 195 188 147
-0.377234 -3.686666 5.124180 186 181 131
-0.365374 -3.761589 5.228318 180 177 120
-0.353383 -3.843549 5.342236 184 178 124
-0.332927 -3.837731 5.334150 195 188 135
-0.314098 -3.851134 5.352779 203 195 142
-0.295133 -3.864567 5.371450 208 197 144
-0.277342 -3.896454 5.415770 194 183 132
-0.264345 -4.006022 5.568061 180 169 118
-0.243387 -4.827755 6.710207 67 53 28
-0.191618 -4.786594 6.652997 77 60 44
-0.158520 -4.549780 6.323843 73 59 47
-0.133919 -4.516643 6.277785 77 64 48
-0.108302 -4.427856 6.154378 75 60 51
-0.086683 -4.498735 6.252895 72 56 44
-0.061957 -4.401228 6.117368 74 63 56
-0.040729 -4.583309 6.370445 67 55 45
-0.017015 -4.604288 6.399604 63 53 48
0.007020 -4.693680 6.523853 49 36 30
0.031359 -4.689826 6.518496 82 73 66
0.096242 -5.638568 7.837174 161 157 150
0.118707 -5.332877 7.412287 147 142 135
0.144155 -5.251451 7.299111 140 137 132
0.172509 -5.284984 7.345720 144 140 136
0.194586 -5.143382 7.148904 131 131 125
0.222478 -5.171102 7.187432 127 126 120
0.237115 -4.917933 6.835547 123 124 117
0.388055 -4.589592 6.379179 99 100 96
0.659964 -4.659058 6.475731 121 123 114
0.685627 -4.669123 6.489721 136 138 123
0.729798 -4.641753 6.451679 127 129 115
0.828026 -4.520297 6.282864 50 53 39
0.933776 -4.824185 6.705245 51 53 39
0.988200 -4.972013 6.910715 64 66 51
1.000480 -4.668045 6.488222 70 71 57
0.942693 -3.540829 4.921479 68 70 54
0.986388 -3.634095 5.051112 69 71 54
0.957135 -3.460146 4.809336 71 72 53
1.180540 -3.651127 5.074785 63 65 59
1.191997 -3.571872 4.964626 43 46 42
1.212330 -3.577160 4.971976 53 55 54
1.289369 -3.747082 5.208154 51 53 52
1.286362 -3.682785 5.118787 49 53 51
1.352988 -3.816807 5.305068 46 50 48
1.355056 -3.767471 5.236494 47 51 49
1.440072 -3.946878 5.485856 48 52 50
1.457119 -3.937580 5.472933 42 47 46
1.480453 -3.738429 5.196127 223 225 222
1.375095 -3.427452 4.763894 219 222 219
1.445081 -3.555887 4.942409 227 230 227
1.397187 -3.394674 4.718334 224 228 226
1.466107 -3.474482 4.829262 225 227 224
1.882993 -3.617018 5.027376 79 81 70
1.967536 -3.532829 4.910360 138 146 130
1.845032 -3.082981 4.285105 83 90 86
1.871357 -3.047663 4.236017 91 91 85
1.880769 -3.037315 4.221634 89 88 82
1.891704 -3.004599 4.176161 89 89 81
2.035632 -3.155159 4.385427 133 128 60
2.054424 -3.158870 4.390585 157 153 95
1.984558 -3.027281 4.207687 170 167 91
2.162003 -3.221434 4.477544 67 59 15
2.246514 -3.321665 4.616858 43 40 46
2.131085 -3.126992 4.346278 57 52 45
2.164192 -3.151567 4.380435 56 52 44
2.081031 -3.007728 4.180510 52 46 39
2.090050 -2.998270 4.167363 67 68 58
2.146901 -2.969269 4.127054 77 77 70
2.166233 -2.974649 4.134533 62 64 56
2.177756 -2.969307 4.127108 51 54 46
2.176099 -2.946196 4.094985 52 54 47
2.186753 -2.939957 4.086314 61 63 56
2.140254 -2.857500 3.971705 62 64 58
2.248801 -2.981758 4.144413 49 52 47
1.825236 -2.235499 3.107172 69 70 67
1.920615 -2.337457 3.248885 54 54 51
1.815416 -2.195555 3.051651 61 61 58
1.838897 -2.210078 3.071838 61 62 58
1.767173 -2.110708 2.933722 58 60 56
1.776850 -2.109190 2.931610 52 60 53
1.756006 -2.071681 2.879477 54 60 55
1.727744 -2.025932 2.815889 57 56 58
1.740423 -2.028452 2.819392 57 57 58
1.737691 -2.013088 2.798038 53 60 55
1.759458 -2.026120 2.816151 52 58 55
1.757983 -2.012393 2.797071 54 60 53
1.912639 -2.138598 2.972486 178 180 171
1.890767 -2.101942 2.921537 169 170 161
1.994974 -2.180047 3.030097 86 90 74
2.058335 -2.211648 3.074020 56 52 43
1.989899 -2.126255 2.955331 44 42 32
2.038862 -2.166556 3.011345 54 51 37
1.997110 -2.110547 2.933498 52 48 35
2.008242 -2.110733 2.933756 59 55 44
1.992110 -2.082415 2.894397 53 48 38
2.078901 -2.138332 2.972117 119 116 99
2.103513 -2.152156 2.991331 126 123 104
2.076968 -2.113771 2.937979 118 114 98
2.252237 -2.256385 3.136201 45 41 48
2.261167 -2.253611 3.132346 37 33 34
2.244892 -2.225874 3.093794 40 34 46
2.257980 -2.227388 3.095897 44 38 47
2.294508 -2.251889 3.129952 48 45 54
2.294153 -2.240129 3.113606 45 41 49
2.290491 -2.225274 3.092959 53 52 59
2.295168 -2.218629 3.083723 55 55 62
2.318756 -2.230239 3.099860 56 55 66
2.294721 -2.196157 3.052488 56 54 68
2.310835 -2.200645 3.058727 54 52 65
2.328525 -2.206584 3.066981 52 52 66
2.340329 -2.206913 3.067439 53 52 67
2.356102 -2.210965 3.073070 61 59 78
2.312580 -2.159604 3.001683 69 67 85
2.336245 -2.171178 3.017770 67 68 85
2.317098 -2.143046 2.978668 70 70 87
2.335268 -2.149531 2.987682 70 70 89
2.310509 -2.116628 2.941950 67 67 86
2.323307 -2.118279 2.944244 63 64 83
2.354644 -2.136737 2.969900 61 62 82
2.298279 -2.075810 2.885216 63 64 83
2.308384 -2.075207 2.884378 64 65 84
2.286679 -2.027313 2.817808 64 65 85
2.299384 -2.029238 2.820484 67 68 88
2.268991 -1.993284 2.770511 65 66 86
2.295695 -2.007588 2.790393 67 68 89
2.303453 -2.005270 2.787171 68 69 90
2.290130 -1.984703 2.758584 67 68 89
2.300042 -1.984365 2.758115 65 66 87
2.334559 -2.005165 2.787024 65 66 87
2.346629 -2.006585 2.788999 67 68 89
2.332861 -1.985997 2.760383 65 66 87
2.305664 -1.954208 2.716198 65 66 87
2.314472 -1.953081 2.714631 64 65 86
2.304484 -1.936171 2.691128 64 65 86
2.312326 -1.934324 2.688561 62 63 84
2.298702 -1.914612 2.661163 62 64 84
2.305995 -1.912418 2.658114 62 63 83
2.317296 -1.913552 2.659690 61 63 82
2.275335 -1.870883 2.600383 58 62 78
2.280371 -1.867055 2.595062 51 54 69
2.273170 -1.853282 2.575919 51 58 74
2.281213 -1.852002 2.574140 56 62 71
2.236175 -1.792771 2.491814 88 93 128
2.194848 -1.752347 2.435627 89 94 131
2.218781 -1.764144 2.452024 88 94 130
2.183596 -1.729032 2.403221 93 101 138
2.193787 -1.729990 2.404553 96 103 140
2.178590 -1.711002 2.378161 116 121 159
2.185247 -1.709262 2.375742 111 117 154
2.176367 -1.695432 2.356520 111 121 157
2.172946 -1.685949 2.343339 111 121 157
2.183474 -1.687322 2.345248 110 119 155
2.208414 -1.699776 2.362557 111 120 156
2.210654 -1.694729 2.355543 112 121 157
2.245347 -1.714503 2.383027 109 119 154
2.242652 -1.705684 2.370769 110 120 156
2.245724 -1.701304 2.364681 85 96 127
2.252004 -1.699378 2.362005 72 84 117
2.265033 -1.702541 2.366400 73 83 111
2.253385 -1.687203 2.345081 77 86 115
2.274028 -1.696066 2.357401 78 87 115
2.270954 -1.687242 2.345136 73 80 103
2.249284 -1.664721 2.313834 47 55 87
-1.612094 -0.991125 1.384775 228 237 218
-1.606836 -0.991071 1.384701 228 237 218
-1.600404 -0.990291 1.383611 227 236 217
-1.595147 -0.990236 1.383533 226 235 216
-1.601206 -0.997227 1.393301 226 235 216
-1.596037 -0.997249 1.393332 227 236 217
-1.604371 -1.005736 1.405189 227 236 217
-1.603592 -1.008546 1.409116 227 236 214
-1.598117 -1.008412 1.408928 227 236 216
-1.590721 -1.007061 1.407041 227 237 212
-1.585156 -1.006864 1.406765 225 236 210
-1.567708 -0.999093 1.395908 225 235 211
-1.563606 -0.999803 1.396901 230 237 215
-1.320320 -0.959490 1.340576 52 54 48
-1.312786 -0.957647 1.338001 55 59 51
-1.304499 -0.955238 1.334635 50 53 46
-4.329794 -3.919343 5.476010 208 214 187
-4.309496 -3.919482 5.476204 208 213 187
-4.406137 -4.026486 5.625708 211 215 189
-4.385347 -4.026688 5.625990 212 216 190
-4.381875 -4.042871 5.648600 212 216 190
-4.345487 -4.028694 5.628792 213 217 192
-4.325816 -4.029953 5.630551 212 216 191
-4.334389 -4.057664 5.669269 214 218 193
-4.310231 -4.054856 5.665346 214 218 188
-4.244724 -4.012929 5.606767 215 219 190
-4.222279 -4.011498 5.604767 216 220 192
-3.977075 -3.797361 5.305580 218 222 194
-3.590274 -3.445203 4.813554 219 223 196
-3.571842 -3.444766 4.812942 220 224 197
-3.549438 -3.440473 4.806944 221 225 198
-3.530418 -3.439432 4.805490 221 225 198
-3.639647 -3.563965 4.979484 222 226 199
-3.620468 -3.563391 4.978683 222 226 199
-3.856837 -3.815630 5.331104 222 225 200
-3.940110 -3.918241 5.474471 223 228 197
-3.920770 -3.919346 5.476014 224 229 199
-3.863857 -3.882707 5.424823 225 230 200
-3.842972 -3.882076 5.423941 227 232 202
-3.634765 -3.691206 5.157263 230 234 204
-3.618778 -3.694548 5.161932 233 235 205
-3.432219 -3.522851 4.922041 232 235 204
-3.268682 -3.373062 4.712759 229 234 202
-3.314574 -3.438936 4.804797 230 235 203
-3.129636 -3.264735 4.561407 230 235 202
-3.285827 -3.446428 4.815265 229 234 202
-3.010345 -3.174857 4.435833 232 238 203
-3.028734 -3.229800 4.512597 232 238 204
-3.351398 -3.593882 5.021283 226 233 198
-2.877901 -3.348437 4.678354 231 236 206
-2.871253 -3.361108 4.696058 233 238 208
-3.934205 -5.069937 7.083592 254 255 229
-3.917871 -5.083068 7.101938 254 255 227
-3.780673 -4.938500 6.899952 255 255 226
-3.785013 -4.978101 6.955280 255 254 226
-3.540945 -4.689281 6.551748 252 252 227
-3.587631 -4.784167 6.684321 247 247 221
-3.561424 -4.782498 6.681988 247 249 217
-3.668913 -4.961607 6.932236 245 248 217
-3.654274 -4.976931 6.953645 248 246 217
-3.776905 -5.180765 7.238438 246 245 216
-3.756114 -5.189390 7.250488 246 245 216
-3.852126 -5.360685 7.489818 246 245 216
-3.765359 -5.278267 7.374666 245 243 215
-3.737299 -5.277535 7.373643 246 245 216
-3.673887 -5.226501 7.302340 250 249 221
-3.652103 -5.234368 7.313332 252 251 222
-3.549822 -5.126112 7.162077 252 251 223
-3.524021 -5.127489 7.164002 253 253 224
-3.581394 -5.250834 7.336338 255 254 225
-3.561474 -5.261884 7.351775 255 253 225
-3.546879 -5.281034 7.378531 253 251 221
-3.525161 -5.289795 7.390772 243 244 210
-3.212723 -5.143127 7.185852 236 238 208
-3.331087 -5.377532 7.513356 244 246 216
-3.269694 -5.323264 7.437533 242 246 216
-3.304617 -5.426219 7.581381 240 247 216
-3.258059 -5.396003 7.539163 240 245 217
-3.226820 -5.390854 7.531970 239 242 216
-3.091466 -5.210145 7.279487 237 241 215
-3.068294 -5.216972 7.289026 238 242 217
-2.826090 -4.848169 6.773744 236 240 215
-2.792483 -4.833786 6.753648 234 239 217
-2.703470 -4.722360 6.597966 237 242 219
-0.991957 -2.007150 2.804341 51 56 53
-0.989101 -2.022727 2.826105 50 56 52
-0.989766 -2.045918 2.858506 50 56 52
-0.979465 -2.046702 2.859602 51 57 53
-0.970477 -2.050275 2.864594 51 56 52
-0.959763 -2.050243 2.864549 54 54 56
-0.964297 -2.083148 2.910523 55 57 57
-0.945883 -2.066665 2.887495 52 58 57
-0.935047 -2.066551 2.887335 52 57 56
-0.928552 -2.076139 2.900731 54 55 54
-0.917648 -2.075978 2.900506 55 58 56
-0.896768 -2.052977 2.868369 59 61 60
-0.889497 -2.060951 2.879510 50 51 49
-0.875135 -2.052490 2.867689 46 51 53
-0.683321 -1.752777 2.448937 189 193 194
-0.706711 -1.837365 2.567121 192 197 198
-0.647710 -1.707128 2.385158 200 205 206
-0.695978 -1.859925 2.598642 191 195 196
-0.735108 -1.992278 2.783563 165 169 171
-0.717531 -1.972535 2.755978 152 156 157
-0.713570 -1.990196 2.780653 155 160 160
-1.213917 -3.896003 5.443400 185 185 169
-1.206871 -3.939363 5.503981 180 182 111
-1.191777 -3.957502 5.529325 181 184 125
-1.165031 -3.936901 5.500542 178 180 102
-1.164300 -4.005052 5.595761 179 183 109
-1.140636 -3.995367 5.582229 182 182 99
-1.105957 -3.946018 5.513280 185 186 103
-1.065982 -3.875541 5.414811 186 183 100
-1.038652 -3.849204 5.378014 189 185 103
-1.012409 -3.825935 5.345503 189 186 105
-0.979186 -3.774820 5.274086 187 185 104
-0.948726 -3.732477 5.214926 187 185 105
-0.927480 -3.725369 5.204995 186 184 106
-0.924336 -3.792221 5.298398 187 184 106
-0.916733 -3.843305 5.369771 188 186 106
-0.896516 -3.842611 5.368802 188 186 108
-0.877901 -3.848907 5.377598 188 186 110
-0.857177 -3.846033 5.373582 189 187 111
-0.836205 -3.841884 5.367786 189 187 110
-0.814023 -3.831836 5.353746 187 185 106
