ply
format ascii 1.0
element vertex 1283
property float x
property float y
property float z
property uchar red
property uchar green
property uchar blue
end_header
1.434488 1.215062 2.197782 55 57 54
1.443133 1.215378 2.198353 53 55 52
1.436379 1.202795 2.175593 53 55 52
1.444358 1.202622 2.175280 51 53 50
1.479316 1.224788 2.215373 55 57 54
1.486898 1.224167 2.214249 52 54 51
1.501085 1.228960 2.222920 51 53 50
1.509460 1.228968 2.222934 50 52 49
1.515542 1.227120 2.219591 51 53 50
1.533077 1.234514 2.232965 51 53 50
1.541333 1.234396 2.232752 51 53 50
1.541818 1.228090 2.221347 51 53 50
1.549930 1.227894 2.220992 51 53 49
1.559824 1.229105 2.223182 51 53 47
1.567948 1.228915 2.222839 51 53 48
1.559435 1.215757 2.199039 51 53 48
1.585693 1.229703 2.224264 50 52 47
1.593335 1.229141 2.223247 52 54 49
1.607110 1.233292 2.230755 51 52 48
1.615035 1.232934 2.230108 49 53 45
1.637108 1.243324 2.248901 47 50 43
1.643826 1.242006 2.246516 40 43 36
1.650116 1.240379 2.243574 36 39 33
1.654695 1.237489 2.238347 37 40 31
1.663004 1.237405 2.238194 45 48 39
1.701621 1.259758 2.278627 68 71 60
1.686918 1.242612 2.247612 86 88 76
1.657364 1.214751 2.197219 88 90 79
1.683904 1.228077 2.221323 91 92 82
1.681190 1.220041 2.206787 92 94 83
1.706688 1.232458 2.229246 91 93 79
1.713411 1.231260 2.227080 90 92 79
1.765658 1.262630 2.283820 92 94 81
1.774308 1.262669 2.283892 92 94 81
1.784947 1.264117 2.286510 91 93 80
1.793368 1.263988 2.286278 93 95 82
1.788269 1.254377 2.268892 93 95 82
1.759131 1.228074 2.221317 92 94 82
1.767381 1.227999 2.221181 94 96 83
1.757338 1.215273 2.198162 95 97 82
1.766514 1.215895 2.199288 92 94 80
1.763437 1.208118 2.185220 91 93 79
1.771592 1.208071 2.185136 96 98 84
1.780516 1.208547 2.185997 95 97 83
1.770514 1.196231 2.163720 94 96 82
1.778296 1.195989 2.163282 97 99 85
1.773925 1.187613 2.148132 97 99 85
1.782629 1.188027 2.148880 97 99 85
1.786155 1.185001 2.143407 98 100 86
1.794421 1.185133 2.143646 98 100 86
1.807034 1.188122 2.149052 97 99 85
1.812008 1.186085 2.145367 99 101 87
1.819762 1.185877 2.144991 100 102 88
1.821887 1.182018 2.138012 99 101 87
1.830276 1.182240 2.138414 103 104 91
1.856570 1.193975 2.159639 102 104 91
1.864583 1.193902 2.159508 101 103 90
1.867148 1.190357 2.153095 101 103 90
1.862818 1.182465 2.138820 102 104 91
1.871429 1.182820 2.139463 102 104 91
1.842148 1.159326 2.096967 101 103 90
1.849695 1.159111 2.096578 102 103 90
1.857863 1.159284 2.096892 104 105 92
1.861764 1.156806 2.092408 103 105 95
1.849698 1.144468 2.070092 104 106 96
1.874573 1.154995 2.089133 109 111 101
1.887573 1.158148 2.094836 101 103 92
1.956537 1.195469 2.162341 93 94 86
1.888797 1.149299 2.078830 99 99 94
2.069331 1.233604 2.231320 34 36 30
2.050567 1.217479 2.202152 32 33 29
2.087389 1.234352 2.232673 32 33 27
2.072611 1.220701 2.207980 31 32 27
2.103769 1.234104 2.232224 35 37 32
2.117322 1.237115 2.237670 41 42 37
2.123634 1.235888 2.235450 39 40 35
2.145363 1.243607 2.249413 44 45 40
2.139636 1.235413 2.234592 52 49 46
2.177158 1.252157 2.264878 61 59 55
2.204207 1.262771 2.284075 66 67 61
2.218486 1.266014 2.289942 70 71 65
2.269717 1.290238 2.333759 70 71 65
2.291457 1.297576 2.347030 68 69 63
2.307105 1.301420 2.353985 67 68 61
2.336706 1.313077 2.375069 65 66 61
2.344109 1.312218 2.373515 66 67 61
2.349750 1.310383 2.370196 68 69 63
2.359681 1.310945 2.371212 64 66 60
2.376660 1.315403 2.379276 63 64 59
2.416533 1.332452 2.410114 64 66 60
2.425435 1.332360 2.409947 65 66 61
2.470509 1.352065 2.445590 61 62 57
2.483029 1.353874 2.448862 60 61 56
2.532141 1.375547 2.488064 60 61 56
2.542804 1.376251 2.489337 60 61 55
2.570667 1.386225 2.507377 60 60 57
2.585573 1.389164 2.512693 60 60 59
2.594620 1.388945 2.512298 61 61 59
2.593198 1.383144 2.501805 62 62 60
2.603061 1.383383 2.502237 62 62 60
2.656546 1.406718 2.544446 65 65 63
2.665780 1.406538 2.544120 66 66 64
2.731930 1.436283 2.597921 67 67 64
2.771544 1.451914 2.626194 67 67 65
2.779836 1.451083 2.624692 67 67 65
2.791347 1.451934 2.626230 68 68 66
2.801329 1.451985 2.626323 70 70 68
2.798553 1.445447 2.614497 72 72 70
2.806449 1.444447 2.612688 73 73 71
2.857977 1.465832 2.651370 75 75 73
2.829564 1.446211 2.615879 78 78 76
2.848281 1.450730 2.624054 76 76 74
2.819762 1.431243 2.588805 78 78 76
2.827345 1.430151 2.586829 80 80 78
2.797161 1.410028 2.550432 78 78 76
2.807445 1.410373 2.551056 78 78 76
2.832314 1.418018 2.564884 80 80 78
2.836307 1.415194 2.559777 79 79 77
2.845935 1.415192 2.559772 78 78 76
2.863276 1.419012 2.566682 78 78 76
2.872870 1.418981 2.566625 79 79 77
2.947780 1.451102 2.624726 79 79 77
2.957572 1.451060 2.624650 78 78 76
2.985276 1.459777 2.640418 83 83 81
3.023576 1.473601 2.665422 82 82 80
3.033153 1.473381 2.665024 82 82 80
3.009957 1.457295 2.635927 81 81 79
3.020912 1.457795 2.636832 81 81 79
3.041839 1.463088 2.646405 85 85 83
3.052902 1.463617 2.647363 82 82 80
3.095588 1.479255 2.675648 83 83 82
3.137182 1.494270 2.702808 83 83 82
3.147604 1.494390 2.703024 82 82 80
3.237092 1.531926 2.770918 85 85 83
3.248101 1.532200 2.771414 83 83 81
3.272687 1.538857 2.783455 83 83 81
3.282833 1.538703 2.783176 84 84 82
3.387975 1.582934 2.863181 83 83 81
3.561686 1.658820 3.000442 83 83 81
3.572794 1.658735 3.000289 83 83 81
3.640085 1.684653 3.047168 83 83 81
3.650685 1.684253 3.046445 83 83 81
3.667666 1.686790 3.051034 83 83 81
3.677280 1.685934 3.049486 84 84 82
3.724328 1.702193 3.078894 83 83 81
3.818619 1.739875 3.147053 82 82 80
3.826292 1.737981 3.143628 79 79 77
3.833271 1.735785 3.139655 79 79 77
3.840634 1.733775 3.136020 78 78 76
3.838764 1.727623 3.124891 76 76 74
3.850268 1.727508 3.124684 75 75 73
3.888001 1.739127 3.145700 75 75 73
3.965532 1.768423 3.198689 73 73 71
3.979607 1.769329 3.200329 71 71 68
4.014704 1.779548 3.218812 70 70 68
4.027503 1.779851 3.219361 72 72 73
4.021126 1.771704 3.204624 71 71 71
4.032746 1.771511 3.204275 70 70 70
-0.541400 0.298201 0.535733 149 153 139
-0.539307 0.298158 0.535657 153 157 142
-0.539434 0.299347 0.537793 152 156 142
-0.539664 0.300602 0.540048 157 161 146
-0.537682 0.300631 0.540099 159 163 149
-0.537506 0.301672 0.541970 158 162 146
-0.535467 0.301672 0.541970 157 161 141
-0.537616 0.304042 0.546227 156 160 141
-0.535489 0.304001 0.546154 156 160 143
-0.535238 0.305029 0.548001 153 157 140
-0.538390 0.308012 0.553359 153 157 140
-0.536297 0.308006 0.553348 151 155 138
-0.530617 0.305932 0.549622 150 154 137
-0.528521 0.305915 0.549593 149 153 136
-0.526601 0.306001 0.549748 146 150 133
-0.524442 0.305949 0.549654 144 148 131
-0.518002 0.303388 0.545053 145 149 132
-0.517190 0.304117 0.546363 142 146 129
-0.515120 0.304109 0.546348 142 146 129
-0.514243 0.304808 0.547603 141 145 128
-0.512187 0.304811 0.547608 141 145 127
-0.512502 0.306230 0.550158 141 145 127
-0.510431 0.306230 0.550158 141 145 128
-0.509125 0.306690 0.550985 140 144 127
-0.509345 0.308077 0.553477 140 144 127
-0.507231 0.308058 0.553443 140 144 127
-0.510951 0.311597 0.559800 139 143 126
-0.508887 0.311623 0.559846 138 142 124
-0.516069 0.317335 0.570109 139 143 125
-0.513924 0.317335 0.570109 137 141 124
-0.509949 0.316200 0.568070 135 139 122
-0.506031 0.315092 0.566079 134 138 121
-0.503487 0.314833 0.565614 130 134 117
-0.501178 0.314720 0.565411 124 129 111
-0.498905 0.314628 0.565246 125 129 112
-0.495502 0.313820 0.563794 119 123 109
-0.493041 0.313604 0.563406 116 120 105
-0.491982 0.314282 0.564624 109 113 98
-0.487828 0.312980 0.562286 106 110 95
-0.485068 0.312565 0.561539 105 109 94
-0.482515 0.312280 0.561028 104 108 93
-0.480454 0.312313 0.561086 104 108 93
-0.472938 0.308784 0.554747 102 106 91
-0.470874 0.308800 0.554775 100 104 89
-0.468058 0.308320 0.553912 100 104 90
-0.468633 0.310079 0.557074 96 100 85
-0.466360 0.309962 0.556863 98 101 88
-0.465550 0.310820 0.558405 95 99 85
-0.463347 0.310752 0.558283 95 98 87
-0.465071 0.313329 0.562912 93 96 85
-0.462935 0.313317 0.562891 92 95 84
-0.461661 0.313891 0.563921 93 96 85
-0.462421 0.315859 0.567458 93 95 84
-0.460257 0.315840 0.567423 92 93 82
-0.455479 0.314018 0.564150 91 93 82
-0.453348 0.314012 0.564139 89 91 80
-0.446680 0.310850 0.558457 90 92 81
-0.444539 0.310822 0.558407 88 90 79
-0.442192 0.310649 0.558097 89 91 80
-0.441223 0.311448 0.559532 87 89 78
-0.439120 0.311450 0.559536 88 90 78
-0.439887 0.313497 0.563214 88 89 82
-0.437813 0.313529 0.563272 89 90 83
-0.434016 0.312322 0.561103 86 87 80
-0.431937 0.312346 0.561146 86 87 80
-0.429087 0.311809 0.560182 87 88 81
-0.426872 0.311731 0.560041 83 84 77
-0.424750 0.311720 0.560021 84 85 78
-0.424857 0.313353 0.562956 84 85 78
-0.422728 0.313346 0.562942 85 85 79
-0.421596 0.314080 0.564262 82 83 76
-0.419490 0.314093 0.564285 85 85 78
-0.416700 0.313592 0.563384 85 89 80
-0.415048 0.313946 0.564021 83 86 78
-0.412968 0.313978 0.564079 85 88 77
-0.410526 0.313734 0.563640 86 89 77
-0.408360 0.313699 0.563578 86 89 78
-0.404583 0.312421 0.561281 87 90 78
-0.402504 0.312446 0.561326 86 89 78
-0.028713 0.367671 0.660540 122 132 131
-0.026229 0.367684 0.660563 122 132 131
-0.023879 0.369791 0.664349 121 132 132
-0.021379 0.369789 0.664346 123 133 135
-0.018868 0.369585 0.663978 122 133 134
0.010545 0.350650 0.629961 130 140 140
0.012915 0.350627 0.629919 131 141 138
0.015268 0.350234 0.629214 133 143 141
0.017652 0.350554 0.629789 133 143 142
0.020020 0.350526 0.629738 134 144 143
0.022415 0.350921 0.630448 133 145 140
0.024788 0.350920 0.630446 134 146 142
0.027184 0.351230 0.631003 134 144 134
0.029510 0.350653 0.629967 137 147 139
0.076823 0.399441 0.717616 252 255 246
0.079524 0.399441 0.717617 255 255 250
0.083095 0.403670 0.725215 255 255 251
0.085773 0.403431 0.724785 255 255 251
0.089063 0.405995 0.729392 255 255 248
0.091760 0.405785 0.729014 254 254 253
0.095880 0.411696 0.739633 253 253 253
0.098658 0.411676 0.739597 253 252 253
0.101444 0.411687 0.739617 253 253 254
0.104181 0.411505 0.739291 253 253 254
0.106964 0.411508 0.739296 254 254 254
0.112602 0.411778 0.739781 254 254 254
0.118129 0.421567 0.757368 255 254 254
0.120581 0.420182 0.754878 253 254 252
0.123844 0.421618 0.757460 254 255 247
0.129013 0.429336 0.771325 255 255 246
0.131939 0.429411 0.771460 255 255 245
0.134702 0.428966 0.770659 255 255 243
0.137598 0.428951 0.770633 255 255 244
0.143653 0.438585 0.787940 255 255 245
0.146201 0.437336 0.785697 255 254 243
0.149169 0.437371 0.785760 253 252 244
0.153676 0.441826 0.793764 253 252 241
0.155778 0.439333 0.789284 254 255 235
0.203549 0.460032 0.826472 255 255 254
0.206673 0.460063 0.826527 255 255 255
0.209078 0.458517 0.823750 248 248 247
0.212244 0.458660 0.824007 250 251 245
0.215261 0.458482 0.823687 252 253 248
0.282597 0.472603 0.849055 253 250 225
0.286173 0.473233 0.850188 254 255 161
0.285983 0.467689 0.840228 251 254 174
0.287905 0.465684 0.836627 254 254 142
0.290821 0.465312 0.835957 245 244 139
0.301830 0.477760 0.858320 213 202 152
0.308847 0.478622 0.859869 204 187 235
0.327209 0.481837 0.865645 254 242 255
0.333158 0.485761 0.872696 250 243 255
0.331987 0.479329 0.861140 245 238 252
0.360217 0.495886 0.890885 151 142 175
0.357502 0.487611 0.876018 122 115 149
0.366430 0.495221 0.889691 146 138 159
0.377939 0.488462 0.877547 251 252 253
0.381347 0.488596 0.877789 254 254 255
1.069678 1.073078 1.927841 72 74 70
1.075463 1.071613 1.925209 71 73 69
1.079440 1.068380 1.919400 68 70 66
1.085995 1.067723 1.918220 65 67 62
1.116989 1.090944 1.959938 63 66 62
1.124261 1.090844 1.959758 61 64 61
1.117339 1.077062 1.934999 61 63 61
1.119267 1.071935 1.925787 59 62 61
1.125259 1.070741 1.923642 57 59 58
1.107746 1.047339 1.881599 57 58 57
1.115055 1.047554 1.881985 58 59 59
1.134745 1.059323 1.903129 57 59 58
1.141963 1.059376 1.903225 57 58 57
1.166201 1.075118 1.931506 57 59 58
1.186187 1.086770 1.952439 57 59 58
1.193504 1.086742 1.952390 55 57 56
1.202451 1.088190 1.954991 55 57 56
1.210011 1.088374 1.955320 55 57 56
1.244813 1.112909 1.999400 57 59 58
1.251967 1.112580 1.998809 56 58 57
1.271399 1.123102 2.017711 56 58 57
1.310740 1.150980 2.067797 54 56 53
1.318908 1.151318 2.068403 56 58 55
1.335395 1.158871 2.081972 57 59 56
1.344181 1.159692 2.083447 54 56 53
1.368561 1.173879 2.108935 54 56 53
1.376961 1.174274 2.109645 53 55 52
1.400962 1.187893 2.134113 52 54 51
1.423033 1.199730 2.155379 53 55 52
1.430955 1.199572 2.155095 55 57 54
1.476304 1.230614 2.210862 52 54 51
1.484245 1.230300 2.210299 53 55 52
1.498015 1.234795 2.218374 50 52 49
1.505924 1.234435 2.217727 53 55 52
1.509695 1.230706 2.211027 52 54 51
1.504966 1.220126 2.192020 52 54 51
1.513192 1.220108 2.191988 52 54 51
1.513569 1.213795 2.180647 53 55 52
1.521723 1.213754 2.180573 53 55 51
1.532071 1.215454 2.183627 52 54 48
1.540294 1.215458 2.183635 52 54 48
1.537605 1.206898 2.168255 51 53 47
1.570652 1.226329 2.203165 51 53 47
1.578882 1.226283 2.203081 52 54 49
1.594669 1.232074 2.213487 51 52 48
1.603343 1.232339 2.213962 51 54 48
1.625992 1.243287 2.233630 53 56 50
1.634866 1.243643 2.234271 49 52 45
1.650672 1.249243 2.244330 39 42 36
1.653520 1.245028 2.236758 40 43 34
1.668822 1.250185 2.246024 37 40 30
1.679659 1.251963 2.249218 44 48 38
1.682204 1.247574 2.241332 68 71 60
1.680901 1.240388 2.228422 85 88 77
1.687923 1.239387 2.226624 91 92 81
1.678955 1.226712 2.203853 90 92 81
1.673601 1.216791 2.186028 92 94 80
1.691882 1.224065 2.199097 91 93 80
1.763835 1.269911 2.281462 90 92 79
1.772795 1.270180 2.281945 90 92 79
1.784955 1.272727 2.286521 92 94 81
1.793376 1.272597 2.286288 91 93 80
1.814832 1.281674 2.302594 93 95 82
1.779209 1.250546 2.246671 92 94 81
1.788368 1.251038 2.247556 89 91 77
1.777469 1.237561 2.223343 91 93 78
1.784410 1.236573 2.221569 93 95 81
1.775231 1.224476 2.199835 96 98 84
1.783260 1.224305 2.199528 96 98 84
1.793312 1.225518 2.201707 93 95 81
1.788156 1.216374 2.185281 94 96 82
1.796204 1.216256 2.185067 95 97 83
1.786794 1.204370 2.163715 95 97 83
1.794722 1.204227 2.163457 98 100 86
1.800885 1.202906 2.161083 97 99 85
1.808170 1.202342 2.160071 96 98 84
1.813178 1.200277 2.156360 99 101 87
1.818606 1.198506 2.153180 100 102 88
1.826651 1.198468 2.153111 99 101 87
1.823298 1.190985 2.139668 100 102 88
1.831252 1.190922 2.139554 102 103 88
1.836342 1.189004 2.136109 102 105 89
1.844300 1.188953 2.136016 102 103 89
1.833256 1.176704 2.114012 100 102 88
1.849799 1.182193 2.123872 100 102 88
1.854201 1.179909 2.119768 101 103 89
1.851665 1.173248 2.107801 101 103 89
1.852396 1.168704 2.099639 102 104 91
1.906591 1.197788 2.151888 103 105 92
1.887509 1.180785 2.121342 101 102 88
1.875246 1.168173 2.098684 102 105 89
1.968321 1.210855 2.175364 112 111 99
2.025100 1.230432 2.210536 24 23 15
2.076139 1.256283 2.256978 28 28 18
2.058434 1.240494 2.228613 21 19 16
2.081745 1.249452 2.244706 34 32 28
2.076855 1.241479 2.230383 31 32 26
2.081470 1.239230 2.226342 31 32 26
2.098098 1.244122 2.235131 32 33 27
2.094234 1.236873 2.222107 36 37 32
2.192738 1.289900 2.317372 44 45 40
2.209646 1.294697 2.325992 53 54 49
2.206543 1.287778 2.313560 59 61 56
2.212339 1.286086 2.310522 66 66 62
2.225245 1.288525 2.314902 69 68 64
2.229096 1.285721 2.309866 67 68 63
2.237083 1.285316 2.309138 68 69 63
2.271783 1.300203 2.335882 69 70 64
2.304131 1.313633 2.360012 68 69 64
2.312618 1.313410 2.359610 67 68 63
2.354072 1.331839 2.392720 68 69 64
2.363486 1.332070 2.393134 66 67 61
2.393096 1.343639 2.413919 67 69 63
2.403820 1.344556 2.415566 63 65 59
2.426341 1.352041 2.429012 62 63 58
2.461377 1.366417 2.454839 62 63 58
2.471028 1.366645 2.455249 60 61 56
2.496351 1.375507 2.471171 61 62 57
2.505025 1.375164 2.470554 58 59 54
2.564190 1.402438 2.519554 60 61 56
2.573266 1.402218 2.519158 60 61 56
2.626227 1.425825 2.561569 59 60 57
2.656123 1.436782 2.581254 60 60 58
2.665623 1.436667 2.581048 61 61 59
2.637662 1.416436 2.544702 62 62 60
2.646694 1.416145 2.544179 63 63 61
2.652613 1.414196 2.540678 65 65 62
2.662721 1.414487 2.541201 66 66 63
2.666909 1.411642 2.536089 66 66 64
2.712053 1.430419 2.569823 65 65 63
2.721676 1.430394 2.569778 66 66 64
2.759056 1.444906 2.595849 67 67 65
2.769409 1.445211 2.596397 68 68 66
2.857239 1.485803 2.669323 70 70 68
2.865520 1.484889 2.667681 70 70 68
2.946157 1.521345 2.733176 72 72 70
2.936288 1.510974 2.714544 76 76 74
2.944304 1.509846 2.712517 78 78 76
2.910055 1.487127 2.671703 79 79 77
2.920118 1.487132 2.671710 79 79 77
2.941756 1.493011 2.682273 79 79 77
2.954304 1.494253 2.684504 79 79 77
2.982532 1.503389 2.700918 78 78 76
3.006963 1.510557 2.713795 78 78 76
3.017119 1.510528 2.713744 78 78 76
2.962850 1.478354 2.655942 77 77 75
2.972746 1.478306 2.655854 78 78 76
2.962152 1.468102 2.637522 78 78 76
2.971753 1.467942 2.637235 79 79 77
2.983246 1.468714 2.638622 79 79 77
3.002408 1.473244 2.646761 80 80 78
3.013061 1.473583 2.647370 83 83 81
3.038488 1.481122 2.660913 85 85 83
3.046191 1.479999 2.658896 84 84 82
3.049790 1.476897 2.653322 85 85 83
3.057462 1.475781 2.651318 83 83 81
3.105471 1.494078 2.684190 82 82 80
3.164396 1.517492 2.726254 83 83 81
3.174461 1.517399 2.726088 84 84 82
3.281867 1.563686 2.809245 83 83 81
3.292011 1.563483 2.808880 82 82 80
3.286625 1.555929 2.795309 83 83 81
3.296688 1.555714 2.794922 85 85 83
3.378500 1.589251 2.855174 83 83 81
3.456124 1.620612 2.911515 82 82 80
3.466255 1.620226 2.910822 83 83 81
3.587100 1.671431 3.002813 83 83 81
3.597867 1.671184 3.002369 83 83 81
3.681592 1.704720 3.062619 83 83 81
3.690408 1.703469 3.060372 84 84 82
3.821103 1.758311 3.158897 81 81 79
3.899716 1.788920 3.213888 80 80 78
3.910754 1.788437 3.213020 83 83 81
3.898302 1.777247 3.192919 80 80 78
3.909335 1.776801 3.192117 79 79 77
3.868955 1.753062 3.149467 78 78 76
3.878755 1.752135 3.147803 75 75 73
3.895085 1.754154 3.151431 75 75 73
3.938709 1.768416 3.177053 74 74 72
3.951606 1.768838 3.177811 72 72 70
3.964166 1.769107 3.178293 71 71 69
3.976383 1.769221 3.178498 72 72 72
3.948489 1.751541 3.146736 70 70 71
3.960333 1.751543 3.146738 70 70 70
-0.541422 0.300229 0.535754 151 155 140
-0.539280 0.300159 0.535629 153 157 142
-0.539554 0.301438 0.537913 153 157 142
-0.539708 0.302659 0.540092 158 162 147
-0.537629 0.302633 0.540046 158 162 148
-0.537508 0.303713 0.541973 157 161 147
-0.535391 0.303669 0.541894 158 162 148
-0.537556 0.306063 0.546166 156 160 147
-0.535800 0.306234 0.546470 152 156 139
-0.535412 0.307191 0.548179 157 161 144
-0.538170 0.309968 0.553134 151 155 138
-0.536394 0.310144 0.553449 151 155 138
-0.530497 0.307930 0.549498 149 153 136
-0.528317 0.307865 0.549381 147 151 134
-0.526625 0.308084 0.549773 145 149 132
-0.524671 0.308152 0.549893 145 149 132
-0.518002 0.305439 0.545053 144 148 131
-0.517187 0.306171 0.546359 143 147 130
-0.515133 0.306172 0.546361 142 146 129
-0.514264 0.306881 0.547626 141 145 128
-0.512194 0.306876 0.547616 140 144 127
-0.512502 0.308300 0.550158 141 145 127
-0.510436 0.308303 0.550163 140 144 127
-0.509120 0.308760 0.550979 140 144 127
-0.509348 0.310162 0.553480 140 144 127
-0.507168 0.310102 0.553374 141 145 128
-0.510961 0.313709 0.559811 139 143 126
-0.508972 0.313782 0.559940 138 142 124
-0.516076 0.319484 0.570116 139 143 126
-0.513901 0.319466 0.570083 138 142 125
-0.509956 0.318343 0.568079 134 138 121
-0.505932 0.317160 0.565968 133 137 120
-0.503783 0.317148 0.565946 130 134 117
-0.501069 0.316778 0.565287 123 128 110
-0.499049 0.316847 0.565409 121 125 108
-0.494623 0.315381 0.562794 115 119 105
-0.493435 0.315976 0.563856 117 121 106
-0.492203 0.316549 0.564877 110 114 99
-0.487390 0.314813 0.561780 106 110 95
-0.485290 0.314822 0.561796 106 110 95
-0.482547 0.314412 0.561065 105 109 94
-0.480314 0.314332 0.560923 103 107 92
-0.472908 0.310852 0.554712 101 105 90
-0.470924 0.310920 0.554834 101 105 90
-0.467813 0.310242 0.553623 100 104 90
-0.468453 0.312056 0.556861 98 102 87
-0.466534 0.312174 0.557072 96 98 89
-0.465488 0.312880 0.558331 96 99 89
-0.463360 0.312861 0.558298 96 99 88
-0.465050 0.315433 0.562887 93 96 85
-0.462914 0.315421 0.562866 93 96 85
-0.461701 0.316040 0.563970 93 96 85
-0.462430 0.318001 0.567470 93 95 84
-0.460280 0.317991 0.567451 93 94 83
-0.455512 0.316164 0.564191 92 94 83
-0.453372 0.316152 0.564169 90 92 81
-0.446646 0.312927 0.558415 90 92 81
-0.444538 0.312922 0.558406 88 90 79
-0.442135 0.312709 0.558026 90 92 81
-0.441213 0.313546 0.559520 87 90 78
-0.439089 0.313533 0.559496 88 91 78
-0.439881 0.315612 0.563206 87 89 80
-0.437780 0.315625 0.563230 87 88 81
-0.434042 0.314452 0.561137 87 88 80
-0.431851 0.314395 0.561033 85 86 78
-0.428930 0.313803 0.559977 84 85 77
-0.426859 0.313829 0.560024 85 86 78
-0.424812 0.313873 0.560103 85 86 78
-0.424854 0.315470 0.562952 85 86 78
-0.422734 0.315468 0.562950 83 84 76
-0.421623 0.316224 0.564299 84 85 77
-0.419503 0.316227 0.564303 84 84 77
-0.416719 0.315726 0.563410 82 85 76
-0.415122 0.316125 0.564121 83 87 78
-0.413019 0.316140 0.564149 85 88 77
-0.410542 0.315867 0.563661 86 89 77
-0.408362 0.315822 0.563581 86 89 78
-0.404701 0.314625 0.561444 86 89 78
-0.402454 0.314520 0.561257 86 89 78
-0.028718 0.370216 0.660646 122 133 132
-0.026235 0.370254 0.660714 123 134 133
-0.023879 0.372297 0.664359 122 133 132
-0.021379 0.372288 0.664343 121 132 130
-0.018867 0.372060 0.663937 121 132 132
0.010543 0.352951 0.629836 133 143 143
0.012915 0.352996 0.629918 131 141 140
0.015270 0.352646 0.629294 131 141 140
0.017653 0.352931 0.629801 133 143 142
0.020023 0.352944 0.629824 134 144 143
0.022415 0.353288 0.630438 133 145 139
0.024788 0.353290 0.630442 133 144 140
0.027169 0.353400 0.630638 133 145 139
0.029518 0.353120 0.630139 131 143 138
0.076822 0.402136 0.717608 255 255 247
0.079524 0.402142 0.717618 255 255 249
0.083052 0.406193 0.724847 255 255 246
0.085416 0.404470 0.721773 255 255 253
0.088629 0.406748 0.725838 254 254 254
0.121402 0.425901 0.760016 252 252 247
0.124340 0.426168 0.760492 255 255 253
0.128985 0.432143 0.771155 255 255 253
0.131937 0.432308 0.771449 255 255 249
0.134700 0.431859 0.770648 255 255 246
0.137620 0.431922 0.770761 253 255 244
0.143655 0.441557 0.787953 251 255 237
0.146213 0.440331 0.785765 251 255 236
0.149163 0.440308 0.785725 249 253 232
0.153961 0.445640 0.795239 249 252 233
0.155769 0.442275 0.789234 254 255 241
0.203463 0.462946 0.826122 255 255 255
0.206653 0.463128 0.826446 255 255 254
0.209298 0.462103 0.824617 252 252 251
0.212388 0.462074 0.824566 250 251 246
0.215338 0.461745 0.823979 251 252 247
0.282593 0.475790 0.849042 254 251 238
0.286872 0.477595 0.852263 252 254 204
0.285758 0.470480 0.839567 249 253 210
0.287788 0.468642 0.836287 252 254 127
0.291141 0.468974 0.836879 238 247 129
0.311314 0.485707 0.866738 210 191 214
0.327479 0.485495 0.866361 245 224 246
0.332793 0.488510 0.871741 246 235 247
0.331761 0.482241 0.860554 251 241 250
0.360898 0.500183 0.892571 152 143 185
0.359880 0.494173 0.881846 126 122 167
1.069859 1.080514 1.928166 77 79 76
1.076146 1.079543 1.926431 72 74 70
1.078912 1.075075 1.918459 70 70 67
1.086377 1.075319 1.918894 68 68 64
1.117403 1.098726 1.960664 65 66 63
1.124672 1.098619 1.960473 64 65 63
1.117965 1.084951 1.936082 63 64 63
1.118719 1.078653 1.924845 61 62 62
1.124580 1.077329 1.922481 59 59 59
1.107655 1.054333 1.881445 60 59 59
1.115786 1.055326 1.883218 58 57 58
1.135187 1.066900 1.903871 57 56 57
1.142420 1.066965 1.903986 58 57 57
1.166590 1.082748 1.932151 55 58 57
1.186193 1.094123 1.952450 59 61 60
1.193420 1.094013 1.952253 56 58 57
1.202565 1.095651 1.955176 57 59 58
1.209953 1.095679 1.955226 57 59 58
1.245107 1.120697 1.999871 55 57 56
1.252310 1.120409 1.999357 55 57 56
1.271407 1.130702 2.017724 55 57 57
1.311249 1.159211 2.068599 56 58 55
1.319151 1.159315 2.068784 55 57 54
1.336452 1.167629 2.083620 55 57 54
1.344116 1.167475 2.083346 56 58 55
1.368982 1.182178 2.109583 56 58 55
1.376798 1.182073 2.109396 55 57 54
1.400183 1.195259 2.132927 54 56 53
1.422877 1.207709 2.155143 54 56 53
1.430625 1.207404 2.154598 54 56 53
1.475833 1.238538 2.210157 56 58 55
1.484028 1.238436 2.209975 55 57 54
1.497448 1.242672 2.217534 55 57 54
1.506070 1.242901 2.217942 53 55 52
1.510028 1.239299 2.211515 53 55 52
1.505157 1.228531 2.192300 53 55 52
1.513306 1.228449 2.192153 53 55 52
1.513649 1.222066 2.180763 54 56 53
1.521976 1.222162 2.180935 54 56 52
1.532142 1.223727 2.183728 53 55 51
1.540644 1.223954 2.184131 52 54 50
1.537696 1.215129 2.168383 51 53 50
1.570740 1.234690 2.203289 51 53 49
1.578824 1.234527 2.203000 52 54 49
1.595981 1.241425 2.215308 51 53 48
1.602344 1.239898 2.212583 54 56 51
1.626884 1.252379 2.234856 53 54 50
1.634660 1.251894 2.233990 51 54 47
1.649116 1.256503 2.242215 44 48 40
1.653512 1.253439 2.236748 39 42 34
1.665891 1.256427 2.242079 35 38 29
1.675638 1.257410 2.243833 35 38 30
1.688721 1.260874 2.250015 44 47 39
1.730864 1.285892 2.294660 66 69 60
1.686518 1.246727 2.224771 89 91 79
1.652832 1.215790 2.169564 89 92 81
1.670477 1.222730 2.181947 89 91 77
1.680668 1.224172 2.184521 93 95 81
1.763922 1.278559 2.281574 91 93 79
1.773059 1.278957 2.282284 93 95 82
1.785152 1.281473 2.286773 90 92 78
1.793478 1.281273 2.286418 93 95 81
1.814097 1.289816 2.301662 93 95 81
1.779903 1.259491 2.247547 91 93 80
1.787671 1.259005 2.246680 93 95 81
1.775997 1.244896 2.221503 95 97 82
1.785013 1.245354 2.222319 92 94 80
1.774850 1.232489 2.199363 95 97 82
1.783439 1.232705 2.199749 92 94 79
1.793263 1.233769 2.201647 93 95 81
1.788123 1.224575 2.185240 95 97 83
1.796557 1.224719 2.185497 93 95 81
1.786884 1.212574 2.163825 95 97 83
1.795013 1.212565 2.163808 96 98 84
1.801057 1.211154 2.161290 96 98 84
1.809004 1.211029 2.161067 97 99 84
1.813068 1.208317 2.156229 99 101 86
1.818390 1.206465 2.152924 99 101 87
1.826667 1.206581 2.153130 98 100 86
1.823141 1.198934 2.139484 100 101 88
1.831546 1.199166 2.139898 99 103 85
1.836409 1.197087 2.136188 100 104 85
1.844346 1.197021 2.136070 100 103 87
1.832907 1.184434 2.113610 99 101 87
1.848874 1.189590 2.122811 98 101 87
1.846481 1.182939 2.110942 99 101 89
1.859353 1.186083 2.116552 101 103 91
1.833436 1.164563 2.078149 105 107 93
1.892982 1.197278 2.136529 106 109 93
1.870244 1.177894 2.101938 101 101 98
1.876888 1.177100 2.100521 111 111 107
2.022975 1.242554 2.217324 29 32 25
2.058899 1.259426 2.247430 36 38 31
2.062677 1.256575 2.242343 30 32 25
2.064986 1.252856 2.235707 28 29 25
2.073654 1.253010 2.235982 31 31 27
2.069238 1.245289 2.222203 36 37 32
2.084906 1.249668 2.230017 38 39 34
2.102847 1.255368 2.240190 43 44 37
2.106793 1.252702 2.235433 48 49 42
2.178895 1.290422 2.302743 52 53 47
2.196640 1.295778 2.312300 62 63 56
2.196140 1.290372 2.302653 68 69 63
2.214580 1.296092 2.312862 70 72 65
2.222927 1.295884 2.312491 70 71 64
2.227489 1.293481 2.308201 68 69 62
2.229134 1.289407 2.300933 67 68 61
2.273771 1.310138 2.337926 67 68 61
2.302572 1.321619 2.358415 67 68 62
2.314136 1.323157 2.361159 66 67 61
2.351598 1.339434 2.390205 67 68 62
2.360726 1.339510 2.390340 66 68 62
2.395314 1.353976 2.416156 63 64 59
2.406761 1.355303 2.418522 60 61 56
2.429405 1.362900 2.432080 59 60 55
2.461823 1.375903 2.455284 58 59 54
2.471170 1.375964 2.455391 57 58 53
2.496363 1.384813 2.471183 59 60 55
2.506052 1.385029 2.471568 61 62 57
2.562097 1.410768 2.517498 58 59 54
2.572946 1.411522 2.518845 60 61 56
2.627066 1.435922 2.562387 61 61 58
2.655765 1.446301 2.580907 61 60 59
2.665705 1.446424 2.581127 62 62 60
2.637381 1.425860 2.544430 62 62 60
2.646496 1.425612 2.543988 63 63 61
2.653137 1.424039 2.541180 65 65 63
2.662261 1.423804 2.540761 65 65 62
2.667134 1.421306 2.536304 65 65 63
2.712167 1.440150 2.569931 67 67 65
2.721937 1.440202 2.570024 64 64 62
2.759736 1.455032 2.596489 68 68 66
2.769422 1.454988 2.596409 67 67 65
2.855000 1.494676 2.667232 68 68 66
2.865000 1.494656 2.667197 69 69 67
2.944843 1.530946 2.731956 72 72 70
2.939720 1.522967 2.717716 74 74 72
2.946367 1.521118 2.714417 76 76 74
2.905456 1.494815 2.667480 79 79 77
2.921054 1.497666 2.672567 77 77 75
2.942779 1.503627 2.683206 77 77 75
2.953301 1.503844 2.683592 78 78 76
2.982650 1.513613 2.701025 77 77 75
3.005066 1.519809 2.712082 78 78 76
3.017715 1.521041 2.714280 77 77 75
2.962734 1.488291 2.655838 77 77 75
2.975781 1.489820 2.658566 77 77 75
2.961807 1.477855 2.637215 78 78 76
2.971277 1.477629 2.636812 82 82 80
2.983772 1.478904 2.639088 78 78 76
3.001585 1.482798 2.646035 81 81 79
3.012107 1.483076 2.646532 81 81 79
3.034866 1.489358 2.657742 79 79 77
3.045858 1.489842 2.658606 80 80 78
3.047297 1.485666 2.651154 84 84 82
3.057853 1.485948 2.651657 84 84 82
3.105218 1.504057 2.683972 83 83 81
3.164201 1.527657 2.726086 83 83 81
3.173961 1.527417 2.725658 84 84 82
3.281860 1.574254 2.809239 84 84 82
3.292415 1.574247 2.809225 82 82 80
3.286339 1.566312 2.795066 83 83 81
3.298539 1.567111 2.796492 84 84 82
3.377647 1.599591 2.854453 82 82 80
3.454899 1.630990 2.910483 83 83 81
3.464749 1.630471 2.909557 82 82 80
3.586939 1.682655 3.002679 83 83 81
3.598094 1.682587 3.002558 83 83 81
3.681253 1.716087 3.062337 81 81 79
3.692723 1.716062 3.062293 83 83 81
3.821012 1.770155 3.158822 83 83 81
3.898522 1.800462 3.212904 81 81 79
3.910559 1.800438 3.212861 83 83 81
3.897687 1.788980 3.192415 80 80 78
3.908613 1.788483 3.191527 79 79 77
3.868217 1.764577 3.148867 79 79 77
3.879184 1.764176 3.148151 77 77 75
3.895739 1.766310 3.151960 76 76 74
3.938083 1.780089 3.176549 76 76 74
3.951378 1.780694 3.177627 75 75 73
3.963233 1.780648 3.177545 74 74 71
3.976741 1.781342 3.178784 73 73 72
3.946309 1.762409 3.144998 73 73 73
3.958983 1.762782 3.145665 73 73 73
-0.538542 0.300637 0.532905 153 157 142
-0.536038 0.300358 0.532410 152 156 141
-0.536627 0.301816 0.534995 156 160 145
-0.536701 0.302994 0.537082 158 162 147
-0.534696 0.303003 0.537099 158 162 147
-0.534475 0.304027 0.538914 157 161 145
-0.532425 0.304015 0.538892 156 160 142
-0.533315 0.305687 0.541856 155 159 141
-0.531143 0.305611 0.541721 156 160 143
-0.532225 0.307413 0.544916 153 157 140
-0.532042 0.308496 0.546835 152 156 139
-0.529977 0.308492 0.546828 150 154 137
-0.525562 0.307114 0.544386 147 151 134
-0.523517 0.307116 0.544390 146 150 133
-0.521733 0.307272 0.544666 146 150 133
-0.519587 0.307215 0.544565 145 149 132
-0.515156 0.305801 0.542059 142 146 129
-0.516494 0.307814 0.545627 142 146 129
-0.514419 0.307801 0.545604 143 147 130
-0.513115 0.308251 0.546402 141 145 128
-0.511021 0.308229 0.546361 141 145 128
-0.512388 0.310301 0.550036 141 145 128
-0.510315 0.310300 0.550033 140 144 127
-0.506833 0.309437 0.548504 140 144 127
-0.510837 0.313157 0.555098 140 144 127
-0.508770 0.313171 0.555122 139 143 126
-0.510014 0.315231 0.558773 139 143 126
-0.507802 0.315163 0.558654 140 144 127
-0.511221 0.318604 0.564753 138 142 125
-0.509131 0.318626 0.564792 136 140 122
-0.505583 0.317732 0.563206 134 138 121
-0.503283 0.317618 0.563005 134 138 120
-0.501019 0.317526 0.562842 130 134 116
-0.499487 0.317899 0.563503 122 126 109
-0.497433 0.317941 0.563578 123 127 110
-0.493250 0.316617 0.561231 114 118 104
-0.491268 0.316702 0.561381 116 120 105
-0.487524 0.315645 0.559507 107 111 96
-0.482352 0.313651 0.555973 109 113 98
-0.480216 0.313622 0.555922 105 109 94
-0.477514 0.313222 0.555213 104 108 93
-0.475400 0.313206 0.555184 103 107 92
-0.470982 0.311665 0.552453 101 105 90
-0.468919 0.311676 0.552472 101 105 89
-0.467396 0.312047 0.553129 100 104 90
-0.465878 0.312424 0.553799 98 102 87
-0.463835 0.312452 0.553848 95 97 88
-0.462087 0.312680 0.554252 96 99 88
-0.459950 0.312645 0.554189 95 98 87
-0.460661 0.314554 0.557574 94 97 86
-0.458523 0.314527 0.557525 93 96 85
-0.458122 0.315696 0.559598 93 96 85
-0.459754 0.318284 0.564186 93 96 85
-0.457630 0.318283 0.564184 93 94 83
-0.453326 0.316760 0.561483 91 93 82
-0.451258 0.316791 0.561540 91 93 82
-0.447033 0.315302 0.558899 90 92 81
-0.444950 0.315316 0.558924 89 91 80
-0.441637 0.314454 0.557397 88 90 78
-0.440395 0.315066 0.558482 88 89 82
-0.438301 0.315072 0.558492 88 88 81
-0.435970 0.314906 0.558198 86 87 79
-0.433749 0.314819 0.558043 84 85 77
-0.430139 0.313718 0.556091 85 86 78
-0.428101 0.313757 0.556161 85 86 78
-0.425882 0.313665 0.555997 85 86 78
-0.425039 0.314589 0.557636 83 84 76
-0.422968 0.314610 0.557672 84 85 77
-0.422770 0.316030 0.560190 84 85 77
-0.420650 0.316021 0.560175 83 84 76
-0.418790 0.316209 0.560507 83 84 76
-0.416660 0.316193 0.560478 83 83 75
-0.414150 0.315887 0.559936 83 87 78
-0.412247 0.316043 0.560214 81 84 75
-0.410252 0.316130 0.560368 83 86 78
-0.407405 0.315559 0.559355 84 87 79
-0.405351 0.315599 0.559425 84 87 79
-0.401450 0.314193 0.556934 84 87 79
-0.399434 0.314256 0.557045 85 88 80
-0.393493 0.311215 0.551655 86 89 80
-0.028621 0.371438 0.658406 122 132 131
-0.026142 0.371426 0.658383 123 133 132
-0.023844 0.374245 0.663381 122 133 132
-0.021349 0.374270 0.663425 121 132 130
-0.018855 0.374319 0.663513 123 134 134
-0.016321 0.373474 0.662014 121 132 134
-0.013829 0.373450 0.661972 122 133 134
0.010546 0.355422 0.630016 132 142 142
0.012918 0.355456 0.630077 129 139 137
0.015281 0.355262 0.629733 130 140 138
0.017591 0.354055 0.627593 133 143 142
0.019952 0.354046 0.627576 132 142 141
0.022339 0.354460 0.628310 132 142 142
0.024704 0.354457 0.628306 134 143 143
0.027034 0.354012 0.627516 132 143 134
0.029390 0.353941 0.627391 130 142 136
0.076889 0.405189 0.718232 255 255 245
0.079594 0.405203 0.718257 252 255 250
0.082797 0.407665 0.722620 254 255 251
0.085443 0.407314 0.721999 255 255 254
0.124604 0.429942 0.762108 252 251 253
0.129306 0.436129 0.773076 255 255 253
0.132026 0.435503 0.771966 254 255 248
0.135825 0.438389 0.777082 252 254 242
0.138707 0.438257 0.776847 252 254 241
0.143850 0.445123 0.789019 253 255 235
0.146705 0.444780 0.788410 250 253 234
0.149708 0.444887 0.788600 249 252 233
0.153390 0.446966 0.792286 251 254 234
0.155736 0.445153 0.789071 254 254 236
0.159513 0.447418 0.793086 254 254 241
0.180078 0.454121 0.804968 248 251 223
0.185780 0.453251 0.803427 255 253 252
0.209211 0.465013 0.824275 254 254 253
0.212096 0.464536 0.823430 253 254 248
0.214532 0.463106 0.820895 245 246 241
0.216755 0.461263 0.817628 246 247 242
0.219786 0.461168 0.817459 249 250 245
0.220038 0.455323 0.807099 254 254 252
0.223406 0.455998 0.808295 255 255 252
0.227715 0.458551 0.812821 255 255 252
0.230771 0.458545 0.812810 255 255 252
0.262279 0.482761 0.855735 255 255 252
0.265496 0.482755 0.855725 255 255 252
0.267663 0.480863 0.852370 255 255 251
0.285892 0.473862 0.839962 248 252 223
0.285922 0.468729 0.830862 246 252 111
0.289214 0.468997 0.831338 238 250 131
0.291680 0.467935 0.829455 249 246 117
0.296034 0.469891 0.832923 248 245 97
0.305452 0.479762 0.850418 218 197 198
0.346942 0.488617 0.866115 126 105 161
0.353276 0.492907 0.873720 135 124 176
0.366361 0.501824 0.889525 150 143 187
0.379229 0.496755 0.880542 250 253 253
0.382558 0.496776 0.880578 253 254 254
0.385870 0.496773 0.880572 254 254 252
0.389151 0.496731 0.880499 255 255 254
1.088423 1.091835 1.935372 71 72 72
1.095490 1.091620 1.934990 70 70 71
1.142244 1.130694 2.004252 67 67 67
1.148750 1.129676 2.002446 65 65 65
1.144078 1.117749 1.981306 64 63 63
1.134287 1.101008 1.951630 62 61 61
1.143840 1.103138 1.955406 61 61 61
1.109342 1.063029 1.884310 60 60 60
1.116375 1.062974 1.884213 59 59 59
1.124824 1.064260 1.886492 58 58 58
1.131485 1.063847 1.885760 59 58 59
1.159827 1.083699 1.920949 55 57 56
1.176910 1.092850 1.937169 58 60 59
1.184266 1.092911 1.937278 56 58 57
1.197346 1.098222 1.946692 56 58 57
1.204809 1.098347 1.946913 56 58 57
1.238077 1.121853 1.988580 57 59 58
1.244837 1.121201 1.987425 57 59 58
1.264701 1.132290 2.007080 57 59 59
1.297782 1.155010 2.047354 55 57 55
1.305374 1.154910 2.047177 56 58 54
1.323897 1.164427 2.064046 56 58 55
1.331783 1.164531 2.064231 54 56 53
1.359212 1.181623 2.094527 55 57 54
1.367087 1.181617 2.094517 55 57 54
1.399018 1.202284 2.131152 56 58 55
1.419658 1.213068 2.150266 55 57 54
1.428068 1.213339 2.150746 53 55 52
1.477413 1.248190 2.212523 56 58 55
1.486401 1.248746 2.213509 55 57 54
1.495998 1.249805 2.215386 57 59 56
1.505273 1.250585 2.216768 55 57 54
1.518425 1.254559 2.223813 55 57 54
1.515208 1.245039 2.206939 54 56 53
1.523387 1.244936 2.206756 53 55 52
1.520940 1.236198 2.191266 53 55 52
1.529492 1.236445 2.191705 54 56 53
1.527944 1.228569 2.177744 53 55 52
1.536156 1.228583 2.177769 53 55 52
1.526161 1.214112 2.152117 53 55 53
1.553911 1.229663 2.179683 51 53 51
1.561764 1.229388 2.179195 53 55 49
1.576351 1.234389 2.188060 50 52 47
1.584142 1.234044 2.187448 52 54 49
1.604643 1.243552 2.204303 52 53 49
1.613600 1.244063 2.205208 50 53 46
1.619892 1.242524 2.202480 52 54 47
1.646419 1.256443 2.227152 49 52 45
1.668493 1.266840 2.245581 39 42 36
1.677197 1.267032 2.245922 37 40 33
1.690946 1.271013 2.252979 43 46 37
1.690978 1.264696 2.241782 46 49 40
1.683954 1.253191 2.221388 73 73 66
1.706552 1.263735 2.240078 86 86 80
1.653443 1.218389 2.159698 90 92 81
1.691343 1.240220 2.198396 89 91 81
1.758540 1.283218 2.274613 90 92 82
1.771469 1.286391 2.280237 92 94 83
1.799684 1.300580 2.305389 89 91 81
1.809299 1.301256 2.306587 90 92 81
1.820057 1.302743 2.309223 90 92 81
1.792758 1.277106 2.263780 90 92 82
1.801405 1.277197 2.263940 92 94 83
1.774037 1.251873 2.219051 94 96 82
1.781504 1.251252 2.217950 94 96 84
1.790941 1.252015 2.219303 93 95 82
1.799352 1.252056 2.219377 92 94 80
1.801276 1.247604 2.211485 96 98 84
1.798974 1.240280 2.198502 94 96 83
1.807638 1.240548 2.198976 94 96 83
1.789297 1.222365 2.166746 94 96 83
1.797837 1.222628 2.167212 94 96 83
1.792412 1.213434 2.150916 95 97 83
1.800560 1.213470 2.150980 96 98 85
1.805885 1.211612 2.147686 96 98 85
1.817670 1.214086 2.152071 98 100 87
1.825175 1.213691 2.151371 99 102 87
1.814627 1.201348 2.129492 98 100 86
1.821156 1.200370 2.127758 98 103 89
1.834498 1.203871 2.133964 97 101 87
1.839305 1.201765 2.130231 96 101 86
1.826452 1.188189 2.106166 97 102 86
1.881492 1.218706 2.160261 100 104 89
1.880215 1.212640 2.149508 104 105 92
1.905619 1.223759 2.169218 104 107 93
1.908422 1.220332 2.163143 109 112 101
2.020255 1.259608 2.232762 22 22 16
2.031722 1.261510 2.236134 15 15 13
2.057783 1.272422 2.255477 25 24 19
2.057767 1.267185 2.246194 30 28 24
2.084170 1.278194 2.265708 26 25 20
2.093123 1.278455 2.266171 31 33 28
2.096027 1.275034 2.260107 30 32 27
2.090181 1.266339 2.244694 39 40 35
2.088864 1.260448 2.234251 46 47 42
2.198742 1.321431 2.342349 56 57 52
2.191933 1.312079 2.325772 65 66 61
2.193616 1.307864 2.318301 65 67 60
2.188134 1.299428 2.303346 66 67 61
2.200419 1.301567 2.307139 70 71 64
2.213835 1.304357 2.312084 69 70 63
2.228384 1.307789 2.318168 67 68 61
2.254736 1.318095 2.336436 67 68 61
2.261506 1.316917 2.334348 67 68 61
2.306872 1.338137 2.371961 67 68 62
2.335767 1.349675 2.392415 66 67 62
2.345288 1.349974 2.392944 63 65 59
2.345155 1.344734 2.383656 60 61 56
2.355068 1.345273 2.384612 59 60 55
2.377913 1.353166 2.398603 60 61 56
2.387783 1.353645 2.399451 61 62 57
2.417138 1.365124 2.419799 60 61 56
2.460601 1.384455 2.454065 58 59 54
2.469455 1.384241 2.453686 59 60 55
2.501332 1.396887 2.476102 58 59 54
2.510331 1.396710 2.475788 60 61 56
2.565878 1.422337 2.521213 60 61 56
2.575756 1.422552 2.521596 61 62 56
2.605715 1.433816 2.541562 61 62 58
2.619198 1.435965 2.545370 62 62 61
2.628760 1.435956 2.545355 63 63 61
2.606067 1.418392 2.514221 61 61 59
2.613437 1.417258 2.512210 65 65 62
2.647712 1.430670 2.535984 64 64 62
2.658232 1.431196 2.536917 65 65 63
2.654969 1.424324 2.524735 66 66 64
2.686650 1.436181 2.545753 67 67 65
2.695990 1.436053 2.545526 67 67 65
2.725463 1.446612 2.564243 66 66 64
2.734827 1.446461 2.563976 66 66 64
2.830500 1.491800 2.644343 67 67 65
2.837900 1.490460 2.641968 68 68 66
2.922284 1.529420 2.711028 69 69 67
2.950141 1.538629 2.727351 72 72 70
2.961973 1.539444 2.728796 72 72 70
2.963926 1.535137 2.721160 74 74 72
2.972217 1.534131 2.719378 75 75 73
3.042733 1.565140 2.774343 75 75 73
3.049161 1.563083 2.770698 76 76 74
3.054416 1.560441 2.766015 76 76 74
3.054226 1.555044 2.756449 78 78 76
3.065490 1.555497 2.757251 77 77 75
2.994603 1.514401 2.684406 76 76 74
3.004917 1.514508 2.684595 77 77 75
2.985210 1.499534 2.658053 78 78 76
2.998676 1.501269 2.661127 76 76 74
2.995295 1.494585 2.649279 78 78 76
3.021615 1.502716 2.663693 80 80 78
3.030462 1.502133 2.662659 80 80 78
3.071925 1.517667 2.690195 78 78 76
3.080939 1.517121 2.689226 82 82 80
3.108292 1.525579 2.704219 81 81 79
3.118064 1.525381 2.703869 81 81 79
3.146696 1.534382 2.719823 82 82 80
3.194839 1.552806 2.752482 82 82 80
3.205434 1.552921 2.752686 82 82 80
3.289598 1.588562 2.815862 84 84 82
3.299474 1.588216 2.815248 82 82 80
3.307812 1.587133 2.813329 82 82 80
3.317018 1.586473 2.812159 85 85 83
3.340886 1.592807 2.823386 85 85 83
3.357664 1.595731 2.828570 85 85 83
3.370837 1.596929 2.830693 82 82 80
3.491900 1.649072 2.923120 81 81 79
3.496287 1.645958 2.917602 86 86 84
3.609758 1.694058 3.002862 82 82 80
3.624210 1.695533 3.005476 81 81 79
3.781887 1.763795 3.126477 82 82 80
3.818600 1.775394 3.147038 82 82 80
3.831201 1.775746 3.147661 83 83 81
3.844304 1.776327 3.148692 80 80 78
3.856051 1.776280 3.148608 80 80 78
3.827312 1.757641 3.115568 80 80 78
3.840986 1.758534 3.117151 79 79 77
3.952383 1.804026 3.197790 77 77 75
4.003776 1.821936 3.229537 77 77 75
4.016716 1.822294 3.230171 78 78 76
3.999560 1.809036 3.206671 74 74 72
4.004596 1.805865 3.201050 73 73 73
3.920974 1.762854 3.124808 73 73 74
3.933964 1.763405 3.125786 74 74 74
-0.538303 0.302508 0.532668 152 156 141
-0.536148 0.302423 0.532519 153 157 142
-0.536569 0.303796 0.534937 156 160 145
-0.536721 0.305027 0.537103 158 162 147
-0.534722 0.305039 0.537125 157 161 147
-0.534515 0.306078 0.538955 156 160 145
-0.532372 0.306012 0.538839 156 160 145
-0.533322 0.307730 0.541864 155 159 144
-0.531208 0.307687 0.541787 154 158 141
-0.532131 0.309409 0.544820 152 156 139
-0.531871 0.310454 0.546660 150 154 137
-0.529800 0.310446 0.546646 150 154 137
-0.525787 0.309295 0.544619 149 153 136
-0.523611 0.309220 0.544487 146 150 133
-0.521742 0.309327 0.544676 145 149 132
-0.519765 0.309370 0.544751 145 149 132
-0.515179 0.307855 0.542083 143 147 130
-0.516413 0.309819 0.545542 144 148 131
-0.514444 0.309870 0.545631 142 146 129
-0.513128 0.310315 0.546416 141 145 127
-0.511017 0.310282 0.546357 141 145 128
-0.512370 0.312361 0.550017 142 146 128
-0.510313 0.312369 0.550031 141 145 127
-0.506833 0.311502 0.548505 140 144 126
-0.510839 0.315248 0.555100 140 144 126
-0.508804 0.315281 0.555159 139 143 126
-0.510034 0.317346 0.558795 139 143 126
-0.507949 0.317357 0.558815 139 143 126
-0.511261 0.320754 0.564797 138 142 124
-0.509140 0.320757 0.564801 136 140 122
-0.505593 0.319857 0.563218 134 138 120
-0.503135 0.319642 0.562839 132 136 118
-0.500983 0.319621 0.562801 128 132 114
-0.499330 0.319918 0.563325 122 126 109
-0.497457 0.320077 0.563605 119 123 105
-0.492887 0.318495 0.560819 113 117 103
-0.491201 0.318770 0.561304 112 116 101
-0.488357 0.318293 0.560463 112 116 101
-0.482219 0.315656 0.555820 105 109 94
-0.480329 0.315789 0.556053 104 108 93
-0.477510 0.315309 0.555208 105 109 93
-0.475355 0.315266 0.555132 103 107 93
-0.470968 0.313734 0.552436 101 105 91
-0.468894 0.313738 0.552442 99 103 89
-0.467254 0.314033 0.552961 98 102 88
-0.465942 0.314552 0.553876 97 102 87
-0.463885 0.314570 0.553908 97 100 90
-0.462074 0.314756 0.554235 96 99 88
-0.460024 0.314781 0.554278 95 98 87
-0.460646 0.316642 0.557556 94 97 86
-0.458495 0.316606 0.557492 93 96 85
-0.458134 0.317811 0.559614 93 96 85
-0.459767 0.320416 0.564202 93 95 84
-0.457637 0.320411 0.564193 92 94 83
-0.453362 0.318898 0.561528 92 94 83
-0.451249 0.318898 0.561528 90 92 81
-0.446996 0.317378 0.558852 90 92 81
-0.444936 0.317409 0.558906 89 91 79
-0.441635 0.316551 0.557395 88 90 78
-0.440407 0.317177 0.558497 88 89 79
-0.438379 0.317230 0.558591 86 88 76
-0.436021 0.317044 0.558264 86 87 79
-0.433899 0.317029 0.558237 85 86 78
-0.430145 0.315815 0.556099 84 85 77
-0.428112 0.315859 0.556176 84 85 77
-0.425979 0.315829 0.556124 85 86 78
-0.425071 0.316711 0.557678 84 85 77
-0.422902 0.316659 0.557585 82 83 75
-0.422792 0.318155 0.560220 84 85 77
-0.420477 0.317999 0.559945 80 81 73
-0.418796 0.318322 0.560514 83 84 75
-0.416684 0.318320 0.560510 83 83 74
-0.414110 0.317963 0.559883 80 84 74
-0.412253 0.318156 0.560222 80 83 74
-0.410197 0.318197 0.560294 81 84 75
-0.407441 0.317692 0.559404 83 86 77
-0.405230 0.317609 0.559258 81 84 75
-0.401710 0.316493 0.557294 83 86 77
-0.399648 0.316522 0.557344 83 86 77
-0.393566 0.313349 0.551757 83 86 77
-0.028632 0.374068 0.658674 122 132 131
-0.026170 0.374308 0.659096 122 132 131
-0.023844 0.376741 0.663380 122 132 131
-0.021348 0.376740 0.663379 121 132 130
-0.018856 0.376829 0.663535 123 133 133
-0.016322 0.375984 0.662047 123 134 135
-0.013831 0.375972 0.662027 124 134 135
0.010546 0.357803 0.630034 131 141 142
0.012917 0.357791 0.630012 133 143 146
0.015279 0.357589 0.629658 133 143 146
0.017591 0.356429 0.627614 132 142 140
0.019952 0.356406 0.627574 132 142 141
0.022339 0.356815 0.628295 132 142 142
0.024703 0.356818 0.628300 134 144 144
0.027031 0.356336 0.627451 137 144 143
0.029395 0.356366 0.627503 135 142 142
0.031801 0.356870 0.628391 142 152 143
0.076892 0.407908 0.718260 254 255 250
0.079595 0.407906 0.718257 255 255 252
0.083134 0.412051 0.725555 255 255 252
0.085068 0.408229 0.718826 255 253 254
0.096953 0.412767 0.726816 181 150 170
0.102482 0.413004 0.727233 186 157 178
0.121875 0.433303 0.762977 243 237 236
0.124858 0.433692 0.763662 254 254 250
0.129130 0.438441 0.772024 254 255 250
0.132024 0.438403 0.771958 254 255 246
0.135817 0.441288 0.777038 253 255 237
0.138752 0.441324 0.777100 252 255 237
0.143866 0.448143 0.789108 250 253 234
0.146721 0.447793 0.788491 247 251 231
0.149668 0.447734 0.788388 250 253 235
0.153592 0.450541 0.793330 251 254 236
0.155754 0.448174 0.789162 251 253 236
0.160690 0.453723 0.798934 252 255 239
0.179787 0.456411 0.803667 249 254 221
0.185713 0.456110 0.803136 255 254 245
0.209583 0.468946 0.825738 255 255 254
0.212595 0.468735 0.825368 255 255 251
0.214447 0.466011 0.820571 242 243 238
0.219996 0.464687 0.818240 250 251 246
0.220335 0.458978 0.808188 254 254 253
0.223378 0.458982 0.808194 255 255 252
0.227941 0.462067 0.813627 255 255 252
0.230829 0.461719 0.813014 255 255 252
0.262279 0.485981 0.855735 255 255 251
0.265499 0.485981 0.855735 255 255 252
0.267663 0.484070 0.852370 255 255 252
0.285109 0.475717 0.837661 250 251 231
0.286131 0.472201 0.831470 246 251 132
0.289183 0.472076 0.831250 246 249 161
0.292733 0.472758 0.832451 246 246 121
0.294957 0.471306 0.829894 253 253 127
0.341931 0.489369 0.861701 113 93 147
0.358167 0.498426 0.877648 135 130 184
0.364496 0.502598 0.884995 152 147 189
0.369399 0.500219 0.880805 151 146 174
0.378868 0.499593 0.879703 254 253 249
0.382574 0.500110 0.880614 252 252 252
0.385321 0.499375 0.879319 254 255 254
0.389095 0.499973 0.880372 254 255 255
1.088010 1.098701 1.934637 72 77 73
1.095614 1.099027 1.935210 71 73 70
1.140515 1.136514 2.001219 68 71 67
1.149585 1.138037 2.003902 65 68 63
1.143763 1.124895 1.980760 64 66 62
1.135898 1.109927 1.954403 62 65 61
1.145933 1.112529 1.958985 62 65 61
1.108770 1.069568 1.883338 62 61 62
1.116312 1.070004 1.884106 60 60 60
1.124290 1.070850 1.885595 60 59 59
1.130809 1.070304 1.884635 60 60 60
1.159600 1.090714 1.920573 56 59 58
1.176918 1.100146 1.937182 57 59 58
1.184079 1.100027 1.936971 58 60 59
1.197291 1.105496 1.946601 58 60 59
1.204688 1.105562 1.946717 56 58 57
1.238199 1.129448 1.988777 56 58 57
1.245596 1.129369 1.988638 56 58 57
1.264728 1.139867 2.007124 56 58 58
1.297788 1.162719 2.047363 56 58 56
1.305605 1.162820 2.047540 57 59 55
1.324264 1.172519 2.064618 57 59 56
1.331882 1.172386 2.064384 56 58 55
1.359595 1.189840 2.095117 54 56 53
1.367474 1.189836 2.095110 55 57 54
1.398901 1.210203 2.130974 56 58 55
1.419946 1.221408 2.150704 57 59 56
1.427587 1.221021 2.150023 54 56 53
1.477756 1.256808 2.213037 55 57 54
1.486179 1.256889 2.213179 56 58 55
1.496937 1.258931 2.216777 57 59 56
1.505472 1.259093 2.217061 55 57 54
1.518842 1.263274 2.224423 55 57 54
1.515103 1.253258 2.206786 55 57 54
1.523314 1.253181 2.206651 55 57 54
