ply
format ascii 1.0
element vertex 1185
property float x
property float y
property float z
property uchar red
property uchar green
property uchar blue
end_header
-0.009958 -0.501096 1.705385 209 220 214
-0.003516 -0.497681 1.693762 207 218 213
0.002811 -0.489603 1.666269 210 218 211
0.009081 -0.489574 1.666173 211 217 210
0.015293 -0.487707 1.659818 209 216 209
0.021534 -0.487606 1.659474 207 214 207
0.027596 -0.484401 1.648567 206 213 206
0.033814 -0.484606 1.649266 207 214 207
0.039588 -0.479368 1.631437 206 213 206
0.045092 -0.472709 1.608774 205 212 205
0.051170 -0.472930 1.609528 208 215 208
0.056131 -0.463875 1.578711 211 218 211
0.062095 -0.464048 1.579299 213 220 213
0.066951 -0.456633 1.554063 211 218 211
0.072785 -0.456547 1.553772 213 220 213
0.077125 -0.447797 1.523991 214 221 214
0.082474 -0.445711 1.516891 214 221 214
0.088123 -0.445412 1.515874 216 223 216
0.094299 -0.447650 1.523492 215 222 215
0.100048 -0.447722 1.523735 212 219 212
0.107325 -0.454253 1.545965 213 220 213
0.113141 -0.454247 1.545943 214 221 214
0.117869 -0.450088 1.531789 215 222 215
0.120618 -0.439109 1.494425 216 223 216
0.126260 -0.439174 1.494646 217 224 217
0.130037 -0.433023 1.473712 217 224 217
0.135566 -0.432969 1.473527 217 224 217
0.138683 -0.425519 1.448172 218 225 218
0.144050 -0.425275 1.447343 222 229 222
0.145586 -0.414152 1.409487 218 225 218
0.146765 -0.402830 1.370955 217 224 217
0.152055 -0.403176 1.372134 219 226 219
0.155492 -0.398749 1.357066 218 225 218
0.160575 -0.398692 1.356873 216 223 216
0.165358 -0.397913 1.354222 215 222 215
0.170456 -0.397919 1.354242 217 224 217
0.174620 -0.395805 1.347045 218 225 218
0.177856 -0.391769 1.333310 217 224 217
0.182790 -0.391590 1.332703 215 222 215
0.186651 -0.389184 1.324514 217 224 217
0.191580 -0.389072 1.324131 218 225 218
0.194604 -0.385194 1.310936 216 223 216
0.199594 -0.385305 1.311310 218 225 218
0.202485 -0.381454 1.298204 218 225 218
0.205853 -0.378663 1.288707 216 223 216
0.210380 -0.378084 1.286736 220 227 220
0.217430 -0.381962 1.299936 217 224 218
0.222249 -0.381838 1.299511 218 225 219
0.228450 -0.384042 1.307012 216 223 216
0.233469 -0.384206 1.307573 215 222 213
0.519588 -0.151132 0.514347 202 199 197
0.520631 -0.150873 0.513467 202 198 196
0.524694 -0.151488 0.515560 207 199 199
0.525419 -0.151139 0.514371 211 204 204
0.532605 -0.152643 0.519492 199 196 194
0.537925 -0.153604 0.522762 200 195 194
0.538346 -0.153164 0.521265 196 191 191
0.585972 -0.158075 0.537977 232 231 229
0.588021 -0.158081 0.538000 231 230 228
0.590213 -0.158126 0.538152 230 229 228
0.592384 -0.158165 0.538285 227 226 225
0.597064 -0.158872 0.540689 229 228 223
0.600379 -0.159211 0.541844 226 225 220
0.602540 -0.159243 0.541954 223 222 219
0.606390 -0.159720 0.543577 223 222 218
0.608148 -0.159645 0.543320 223 222 219
0.612848 -0.160339 0.545685 223 222 221
0.628791 -0.160740 0.547049 190 188 192
0.646655 -0.163170 0.555319 225 221 220
0.646200 -0.162530 0.553140 227 223 221
0.648344 -0.162546 0.553194 224 220 219
0.649127 -0.162221 0.552089 223 220 218
0.651250 -0.162233 0.552128 222 218 217
0.653936 -0.162384 0.552642 221 217 216
0.656490 -0.162501 0.553042 220 215 214
0.658572 -0.162501 0.553043 218 214 212
0.662705 -0.163006 0.554760 218 214 215
0.665072 -0.163075 0.554993 217 212 212
0.669697 -0.163694 0.557103 216 212 211
0.671499 -0.163623 0.556859 219 214 214
-0.830176 -0.219489 0.756680 17 18 20
-0.825969 -0.219129 0.755437 12 13 15
-0.827656 -0.220335 0.759595 16 17 19
-0.826002 -0.220656 0.760704 31 32 34
-0.823013 -0.220622 0.760586 40 41 42
-0.823169 -0.221434 0.763386 40 41 43
-0.820338 -0.221446 0.763425 37 38 43
-0.816103 -0.221077 0.762152 26 27 31
-0.815521 -0.221698 0.764295 23 24 28
-0.810222 -0.221037 0.762016 23 24 28
-0.806692 -0.220856 0.761391 36 37 41
-0.809777 -0.222490 0.767027 50 51 55
-0.801769 -0.223476 0.770426 54 55 59
-0.803772 -0.224848 0.775154 42 43 47
-0.803670 -0.225638 0.777878 26 27 32
-0.801273 -0.225788 0.778393 24 25 30
-0.799334 -0.226067 0.779358 25 26 31
-0.796372 -0.226059 0.779330 27 27 32
-0.795097 -0.226532 0.780958 28 29 34
-0.792290 -0.226569 0.781088 25 29 35
-0.796210 -0.228538 0.787876 27 30 35
-0.791082 -0.227915 0.785727 22 25 32
-0.795988 -0.230189 0.793566 22 25 30
-1.069623 -0.362334 1.249133 178 186 180
-1.068605 -0.363587 1.253453 167 175 171
-1.063658 -0.363508 1.253181 166 168 166
-1.073399 -0.368471 1.270290 166 168 167
-1.160388 -0.403726 1.391830 163 168 169
-1.154319 -0.403436 1.390828 162 170 172
-1.171670 -0.411365 1.418165 162 170 173
-1.166977 -0.411592 1.418947 160 168 177
-1.239051 -0.460174 1.586430 154 166 190
-1.233351 -0.460274 1.586777 156 168 192
-1.230954 -0.461615 1.591398 156 168 198
-1.225702 -0.461892 1.592355 159 172 200
-1.221960 -0.462744 1.595292 160 172 200
-1.271702 -0.483959 1.668428 157 170 197
-1.250674 -0.478318 1.648981 160 173 204
-1.277833 -0.491142 1.693191 157 171 201
-1.260191 -0.486788 1.678182 159 173 206
-1.257165 -0.505901 1.744072 155 169 197
-1.250619 -0.505907 1.744096 153 168 195
-1.273744 -0.520727 1.795187 147 159 182
-1.329372 -0.587058 2.023860 148 161 168
-1.333127 -0.592109 2.041272 158 169 176
-1.321129 -0.593621 2.046483 152 164 174
-1.184941 -0.614863 2.119714 245 245 252
-1.189822 -0.621580 2.142871 246 246 253
-1.213509 -0.638280 2.200445 246 245 250
-1.204787 -0.638046 2.199638 247 246 252
-1.214030 -0.647389 2.231846 249 249 253
-1.205486 -0.647311 2.231578 249 249 254
-1.191779 -0.644439 2.221679 252 251 255
-1.183878 -0.644690 2.222543 251 250 255
-1.159430 -0.635868 2.192131 253 251 255
-1.156093 -0.638582 2.201486 255 253 255
-1.147681 -0.638511 2.201240 255 253 255
-1.144396 -0.641312 2.210898 255 254 255
-1.135832 -0.641174 2.210422 255 254 255
-1.147195 -0.652366 2.249005 255 253 255
-1.138712 -0.652354 2.248965 255 253 255
-1.101390 -0.635698 2.191542 255 253 255
-1.121925 -0.662431 2.283703 255 251 255
-1.117080 -0.664661 2.291391 255 250 255
-1.125753 -0.675032 2.327146 255 250 255
-1.118632 -0.676021 2.330554 255 251 255
-1.088423 -0.662962 2.285536 255 249 255
-1.068902 -0.656258 2.262422 254 248 255
-1.058886 -0.655328 2.259216 255 249 255
-1.050239 -0.655237 2.258902 255 251 255
-1.041720 -0.655225 2.258862 255 251 255
-1.053893 -0.668336 2.304060 254 250 255
-1.045454 -0.668483 2.304569 255 250 255
-1.039034 -0.669936 2.309577 252 251 254
-1.036328 -0.673827 2.322992 253 252 255
-1.028067 -0.674142 2.324079 253 254 254
-1.005436 -0.664959 2.292419 254 254 254
-0.996595 -0.664816 2.291925 251 253 254
-0.984810 -0.662689 2.284594 252 253 254
-0.976047 -0.662576 2.284205 249 254 255
-0.952935 -0.652635 2.249933 250 255 255
-0.890276 -0.662714 2.284682 233 242 252
-0.893587 -0.671666 2.315540 240 255 249
-0.883540 -0.670653 2.312050 241 255 254
-0.876780 -0.672140 2.317177 246 255 255
-0.871123 -0.674512 2.325353 246 255 255
-0.882100 -0.689942 2.378549 243 255 255
-0.887027 -0.700908 2.416351 243 254 255
-0.874452 -0.698128 2.406768 248 254 253
-0.928626 -0.773420 2.666335 156 169 221
-0.840520 -0.766275 2.641702 150 157 140
-0.843931 -0.778593 2.684169 137 145 132
-0.832513 -0.777364 2.679929 130 137 118
-0.823952 -0.778804 2.684896 130 136 119
-0.814063 -0.779008 2.685600 136 144 120
-0.812878 -0.787654 2.715404 144 154 129
-0.801524 -0.786539 2.711561 152 157 135
-0.793934 -0.789136 2.720516 152 157 135
-0.783133 -0.788569 2.718559 153 158 134
-0.773080 -0.788750 2.719184 153 158 134
-0.744035 -0.769299 2.652127 157 162 140
-0.734236 -0.769488 2.652779 156 161 140
-0.714394 -0.759013 2.616667 157 162 139
-0.704435 -0.758892 2.616250 159 164 141
-0.677442 -0.740157 2.551662 160 165 142
-0.685148 -0.759339 2.617790 160 165 142
-0.675282 -0.759322 2.617732 161 166 143
-0.668733 -0.763089 2.630720 161 166 143
-0.658933 -0.763205 2.631119 160 165 142
-0.651298 -0.765870 2.640307 160 165 142
-0.641187 -0.765660 2.639584 161 166 143
-0.623254 -0.755957 2.606133 163 167 144
-0.615539 -0.758534 2.615017 166 170 147
-0.605705 -0.758544 2.615049 166 170 147
-0.605862 -0.771270 2.658923 165 169 146
-0.595896 -0.771321 2.659099 165 169 146
-0.596048 -0.784694 2.705203 164 168 145
-0.585820 -0.784630 2.704981 164 168 145
-0.583936 -0.795937 2.743962 162 166 143
-0.572489 -0.794381 2.738598 161 165 142
-0.561813 -0.793857 2.736791 163 167 144
-0.543815 -0.782776 2.698589 163 167 144
-0.534455 -0.783941 2.702605 160 164 141
-0.503949 -0.753534 2.597779 159 163 140
-0.495133 -0.754997 2.602821 155 159 137
-0.473517 -0.736609 2.539428 154 158 137
-0.433388 -0.688069 2.372091 146 150 128
-0.426347 -0.691125 2.382626 146 150 124
-0.396662 -0.656817 2.264350 147 151 125
-0.388464 -0.657364 2.266236 142 150 121
-0.369206 -0.638798 2.202229 142 149 122
-0.361730 -0.640234 2.207182 135 141 115
-0.361988 -0.655748 2.260666 136 142 115
-0.356865 -0.662026 2.282308 134 138 116
-0.347631 -0.660798 2.278074 135 140 117
-0.343246 -0.668959 2.306209 141 148 118
-0.332967 -0.665758 2.295176 134 139 111
-0.324295 -0.665688 2.294931 141 154 122
-0.312574 -0.659180 2.272498 142 154 121
-0.278935 -0.640838 2.209265 179 185 171
-0.218239 -0.589196 2.031229 194 201 189
-0.203511 -0.569377 1.962903 192 204 198
-0.196310 -0.569914 1.964755 196 207 201
-0.184718 -0.557248 1.921090 194 206 197
-0.177465 -0.557175 1.920840 196 208 197
-0.170306 -0.557401 1.921618 197 207 203
-0.163009 -0.557176 1.920842 195 205 201
-0.154696 -0.553296 1.907467 198 208 203
-0.148924 -0.558568 1.925642 197 207 202
-0.141665 -0.558519 1.925473 200 209 204
-0.134438 -0.558596 1.925738 200 209 204
-0.127173 -0.558518 1.925467 200 209 204
-0.118274 -0.550818 1.898922 199 208 202
-0.111012 -0.550242 1.896939 202 211 208
-0.102681 -0.543923 1.875154 203 212 210
-0.094198 -0.535805 1.847167 204 213 208
-0.087274 -0.535973 1.847747 205 214 209
-0.080125 -0.534666 1.843240 205 214 209
-0.073229 -0.534961 1.844257 204 213 208
-0.064081 -0.517140 1.782818 205 214 209
-0.057353 -0.516967 1.782223 207 216 211
-0.049871 -0.509054 1.754943 208 217 212
-0.042664 -0.501959 1.730483 208 217 212
-0.036153 -0.501970 1.730521 207 216 211
-0.029665 -0.502390 1.731971 208 217 212
-0.023151 -0.502452 1.732183 208 217 212
-0.016418 -0.495963 1.709814 210 219 214
-0.009982 -0.495895 1.709577 211 220 215
-0.003498 -0.488831 1.685224 208 218 214
0.002806 -0.482444 1.663205 211 219 212
0.009066 -0.482520 1.663470 212 219 211
0.015320 -0.482338 1.662841 210 217 210
0.021576 -0.482294 1.662688 208 215 208
0.027818 -0.482040 1.661815 207 214 207
0.034071 -0.482028 1.661772 206 213 206
0.040132 -0.479738 1.653878 205 212 205
0.045056 -0.466279 1.607478 207 214 207
0.050965 -0.465003 1.603080 210 217 210
0.055745 -0.454790 1.567869 212 219 212
0.061639 -0.454740 1.567697 214 221 214
0.066696 -0.449070 1.548152 215 222 215
0.072527 -0.449103 1.548266 216 223 216
0.077764 -0.445723 1.536612 215 222 215
0.082942 -0.442502 1.525506 215 222 215
0.088695 -0.442561 1.525712 216 223 216
0.093716 -0.439186 1.514075 215 222 215
0.099401 -0.439132 1.513889 216 223 216
0.105702 -0.441655 1.522588 216 223 216
0.111422 -0.441618 1.522460 216 223 216
0.116251 -0.438224 1.510760 217 224 217
0.120058 -0.431475 1.487493 219 226 219
0.125633 -0.431398 1.487227 220 227 220
0.129925 -0.427108 1.472437 220 227 220
0.135425 -0.426980 1.471995 221 228 221
0.138385 -0.419167 1.445061 220 227 220
0.143877 -0.419326 1.445608 219 226 219
0.144669 -0.406273 1.400610 221 228 221
0.147118 -0.398626 1.374249 219 226 219
0.152223 -0.398455 1.373656 220 227 220
0.155922 -0.394732 1.360824 219 226 219
0.161029 -0.394699 1.360708 216 223 216
0.165312 -0.392708 1.353846 214 221 214
0.170351 -0.392579 1.353401 220 227 220
0.174272 -0.389958 1.344366 217 224 217
0.178110 -0.387303 1.335213 219 226 219
0.183093 -0.387214 1.334906 218 225 218
0.186374 -0.383630 1.322548 218 225 218
0.191405 -0.383737 1.322918 219 226 219
0.193952 -0.378987 1.306544 222 229 222
0.198931 -0.379105 1.306951 220 227 220
0.200570 -0.373007 1.285926 222 229 222
0.203171 -0.368943 1.271915 220 227 220
0.207768 -0.368607 1.270759 220 227 220
0.214797 -0.372505 1.284196 220 227 221
0.219553 -0.372374 1.283746 220 227 218
0.226664 -0.376158 1.296789 221 228 220
0.231638 -0.376312 1.297319 219 226 218
0.235485 -0.374665 1.291642 218 225 217
0.237468 -0.370179 1.276178 220 227 219
0.242274 -0.370184 1.276195 221 228 220
0.245598 -0.367970 1.268560 216 223 215
0.250421 -0.368042 1.268812 216 222 216
0.526505 -0.150064 0.517340 202 199 198
0.528542 -0.150090 0.517429 204 200 199
0.533836 -0.151037 0.520692 204 199 198
0.538342 -0.151754 0.523168 208 203 202
0.540818 -0.151897 0.523659 209 204 204
0.563944 -0.155004 0.534369 184 180 179
0.566749 -0.155221 0.535119 186 185 183
0.585801 -0.156005 0.537820 232 231 229
0.587616 -0.155949 0.537629 232 231 229
0.591909 -0.156550 0.539699 230 229 227
0.594335 -0.156654 0.540058 227 226 224
0.601230 -0.157931 0.544461 227 226 221
0.605680 -0.158560 0.546628 224 223 219
0.607771 -0.158569 0.546659 222 221 217
0.610296 -0.158690 0.547078 220 219 215
0.612321 -0.158681 0.547048 220 219 215
0.648011 -0.162468 0.560103 213 207 210
0.648409 -0.162041 0.558630 221 215 218
0.651243 -0.162224 0.559259 223 218 221
0.650056 -0.161406 0.556442 224 220 222
0.652365 -0.161460 0.556625 224 219 222
0.651518 -0.160734 0.554123 218 219 216
0.653636 -0.160742 0.554151 219 221 218
0.657025 -0.161061 0.555253 220 218 216
0.661740 -0.161703 0.557465 221 216 215
0.663803 -0.161694 0.557435 221 218 216
0.669198 -0.162495 0.560195 216 212 211
0.671270 -0.162486 0.560165 215 211 210
-0.828685 -0.216253 0.755322 16 17 19
-0.828767 -0.217768 0.760614 49 50 52
-0.824564 -0.217415 0.759379 48 49 51
-0.824485 -0.218150 0.761948 45 46 47
-0.821903 -0.218225 0.762211 45 46 48
-0.820068 -0.218501 0.763173 42 43 49
-0.815839 -0.218138 0.761906 39 40 45
-0.811959 -0.217866 0.760957 39 40 45
-0.811074 -0.218399 0.762817 41 42 47
-0.807017 -0.218078 0.761698 42 43 48
-0.807365 -0.218950 0.764743 46 47 52
-0.810818 -0.220673 0.770760 55 56 60
-0.807877 -0.220662 0.770722 62 63 67
-0.805412 -0.220781 0.771139 58 59 63
-0.802302 -0.220724 0.770938 50 51 56
-0.805058 -0.222286 0.776394 38 39 44
-0.803765 -0.222737 0.777971 26 27 32
-0.801200 -0.222838 0.778322 24 25 30
-0.799306 -0.223127 0.779332 24 25 30
-0.796369 -0.223126 0.779327 24 25 30
-0.795174 -0.223615 0.781034 26 27 32
-0.792286 -0.223629 0.781085 25 28 34
-0.796664 -0.225702 0.788325 24 27 32
-0.792434 -0.225343 0.787070 21 24 32
-0.796121 -0.227240 0.793699 20 22 30
-1.079898 -0.359489 1.255614 154 165 188
-1.079377 -0.360895 1.260524 157 167 182
-1.068829 -0.358946 1.253715 149 160 176
-1.064651 -0.359128 1.254351 147 156 174
-1.239078 -0.454214 1.586465 176 179 188
-1.233485 -0.454352 1.586949 175 178 188
-1.230271 -0.455373 1.590515 180 181 198
-1.224921 -0.455610 1.591340 180 182 197
-1.216692 -0.454772 1.588415 188 189 208
-1.254442 -0.471197 1.645784 185 185 203
-1.233840 -0.465758 1.626786 189 190 212
-1.235896 -0.498700 1.741845 211 217 245
-1.227959 -0.498139 1.739887 214 217 248
-1.265794 -0.530458 1.852767 226 242 253
-1.261408 -0.531547 1.856574 228 244 254
-1.279107 -0.542007 1.893108 225 241 252
-1.269697 -0.541033 1.889706 224 239 250
-1.284396 -0.550379 1.922350 228 243 252
-1.278538 -0.550972 1.924420 229 245 255
-1.308226 -0.566977 1.980322 228 247 255
-1.350677 -0.636104 2.221765 168 180 219
-1.200436 -0.602651 2.104924 241 249 255
-1.191397 -0.602087 2.102951 243 250 255
-1.191984 -0.606411 2.118054 243 251 255
-1.186967 -0.607924 2.123339 250 255 255
-1.193074 -0.615193 2.148727 249 255 255
-1.215204 -0.630879 2.203517 251 253 255
-1.206856 -0.630850 2.203415 253 255 255
-1.218364 -0.641271 2.239814 251 254 255
-1.209273 -0.640920 2.238588 250 254 255
-1.199277 -0.640081 2.235658 253 253 255
-1.194589 -0.642083 2.242650 255 254 255
-1.168479 -0.632518 2.209240 254 255 255
-1.162391 -0.633731 2.213478 253 254 255
-1.155025 -0.634260 2.215326 253 253 255
-1.147480 -0.634698 2.216856 254 252 255
-1.140365 -0.635382 2.219244 253 251 255
-1.120304 -0.652892 2.280402 253 248 255
-1.111747 -0.652906 2.280453 254 248 255
-1.121610 -0.663822 2.318580 253 248 255
-1.112782 -0.663761 2.318365 253 248 255
-1.093307 -0.657298 2.295791 253 247 255
-1.076303 -0.652228 2.278085 253 247 255
-1.066878 -0.651708 2.276267 254 247 255
-1.055440 -0.649940 2.270091 253 248 255
-1.047629 -0.650394 2.271676 251 245 255
-1.043767 -0.653327 2.281921 252 249 255
-1.035592 -0.653587 2.282830 255 250 255
-1.027544 -0.653932 2.284035 249 246 254
-1.023724 -0.656997 2.294739 249 247 255
-1.014960 -0.656913 2.294449 249 248 254
-0.998733 -0.651957 2.277137 249 247 253
-0.989963 -0.651825 2.276675 246 247 251
-0.975792 -0.648103 2.263675 245 247 250
-0.967156 -0.648024 2.263399 246 248 251
-0.941434 -0.636394 2.222778 247 249 252
-0.919209 -0.626940 2.189759 245 248 250
-0.916654 -0.630853 2.203425 246 249 250
-0.892191 -0.619622 2.164199 244 247 252
-0.890193 -0.660434 2.306744 243 250 254
-0.875613 -0.656014 2.291308 240 248 253
-0.878355 -0.664613 2.321341 241 249 254
-0.866137 -0.661951 2.312044 236 248 252
-0.877794 -0.677668 2.366938 236 249 250
-0.883542 -0.689097 2.406858 233 248 250
-0.873118 -0.688020 2.403096 235 248 250
-0.899360 -0.716116 2.501229 231 247 250
-0.850525 -0.765337 2.673148 145 152 134
-0.843296 -0.767915 2.682151 137 145 130
-0.831048 -0.765928 2.675212 131 138 119
-0.823947 -0.768695 2.684877 129 137 119
-0.813600 -0.768465 2.684073 137 141 121
-0.813289 -0.777828 2.716774 148 152 133
-0.800760 -0.775595 2.708975 151 155 134
-0.794103 -0.779064 2.721094 150 155 133
-0.783498 -0.778702 2.719829 153 158 135
-0.773035 -0.778472 2.719026 152 157 133
-0.745871 -0.761192 2.658671 155 160 138
-0.734492 -0.759771 2.653706 157 162 141
-0.714027 -0.748781 2.615322 158 163 140
-0.703195 -0.747728 2.611644 161 166 142
-0.676891 -0.729961 2.549586 160 165 142
-0.685284 -0.749637 2.618309 159 164 141
-0.675164 -0.749340 2.617274 160 165 142
-0.668669 -0.753118 2.630470 161 166 143
-0.658569 -0.752888 2.629666 162 167 144
-0.651050 -0.755646 2.639300 162 167 144
-0.641138 -0.755670 2.639383 162 167 144
-0.623222 -0.746111 2.605997 163 167 144
-0.615659 -0.748840 2.615528 164 168 145
-0.605739 -0.748744 2.615193 164 168 145
-0.605786 -0.761169 2.658590 165 169 146
-0.595894 -0.761313 2.659091 165 169 146
-0.595975 -0.774420 2.704873 164 168 145
-0.586051 -0.774757 2.706048 164 168 145
-0.583702 -0.785296 2.742861 166 170 147
-0.572154 -0.783616 2.736993 164 168 145
-0.561674 -0.783366 2.736118 162 166 143
-0.544036 -0.772934 2.699684 159 163 140
-0.533927 -0.773007 2.699936 159 163 140
-0.504706 -0.744876 2.601681 158 162 141
-0.494824 -0.744737 2.601197 156 160 137
-0.471679 -0.724229 2.529568 153 157 130
-0.438519 -0.687183 2.400172 151 155 129
-0.429111 -0.686581 2.398070 149 153 127
-0.394267 -0.644382 2.250678 145 148 123
-0.387806 -0.647736 2.262396 143 147 128
-0.369470 -0.630962 2.203806 143 147 126
-0.361683 -0.631846 2.206893 134 141 113
-0.362185 -0.647592 2.261893 135 142 115
-0.356448 -0.652673 2.279638 135 139 120
-0.347775 -0.652496 2.279021 138 143 122
-0.345546 -0.664705 2.321665 138 142 122
-0.335122 -0.661375 2.310032 135 139 119
-0.324780 -0.658033 2.298359 143 146 127
-0.313063 -0.651648 2.276057 140 142 124
-0.303509 -0.649532 2.268666 153 162 140
-0.202106 -0.558109 1.949348 203 211 199
-0.196419 -0.562834 1.965851 196 204 190
-0.184640 -0.549789 1.920286 198 203 196
-0.177348 -0.549583 1.919569 199 203 195
-0.170107 -0.549526 1.919370 202 207 200
-0.163033 -0.550030 1.921129 201 206 198
-0.154752 -0.546315 1.908153 205 209 206
-0.148944 -0.551398 1.925907 202 205 202
-0.141677 -0.551321 1.925637 200 209 204
-0.134397 -0.551183 1.925155 198 207 202
-0.127184 -0.551318 1.925627 200 209 204
-0.118314 -0.543856 1.899564 198 207 202
-0.111052 -0.543300 1.897621 202 211 208
-0.102717 -0.537054 1.875808 200 209 207
-0.094205 -0.528895 1.847311 203 212 207
-0.087231 -0.528760 1.846838 205 214 209
-0.080132 -0.527777 1.843403 205 214 209
-0.073204 -0.527843 1.843634 204 213 208
-0.064075 -0.510385 1.782660 205 214 209
-0.057382 -0.510523 1.783142 205 214 209
-0.049874 -0.502485 1.755065 206 215 210
-0.042665 -0.495466 1.730549 207 216 211
-0.036152 -0.495449 1.730490 207 216 211
-0.029667 -0.495896 1.732051 208 217 212
-0.023148 -0.495879 1.731994 209 218 213
-0.016417 -0.489522 1.709789 208 217 212
-0.009983 -0.489520 1.709782 208 217 212
-0.003498 -0.482457 1.685113 207 217 213
0.002807 -0.476260 1.663467 211 218 212
0.009064 -0.476129 1.663011 213 220 212
0.015322 -0.476122 1.662987 211 218 211
0.021575 -0.476018 1.662621 209 216 209
0.027824 -0.475896 1.662194 209 216 209
0.034076 -0.475854 1.662050 208 215 208
0.040142 -0.473624 1.654260 208 215 208
0.045017 -0.459834 1.606095 209 216 209
0.050921 -0.458580 1.601715 211 218 211
0.055738 -0.448832 1.567669 214 221 214
0.061614 -0.448659 1.567062 216 223 216
0.066754 -0.443634 1.549512 215 222 215
0.072589 -0.443653 1.549579 215 222 215
0.077767 -0.439961 1.536685 216 223 216
0.082939 -0.436747 1.525456 216 223 216
0.088674 -0.436717 1.525352 216 223 216
0.093697 -0.433401 1.513770 217 224 217
0.099356 -0.433239 1.513204 217 224 217
0.105661 -0.435757 1.522000 217 224 217
0.111342 -0.435574 1.521361 218 225 218
0.116227 -0.432449 1.510446 218 225 218
0.120065 -0.425903 1.487581 219 226 219
0.125672 -0.425935 1.487693 219 226 219
0.129897 -0.421479 1.472129 219 226 219
0.135447 -0.421510 1.472238 220 227 220
0.138473 -0.413993 1.445984 219 226 219
0.143879 -0.413892 1.445629 218 225 218
0.144679 -0.401030 1.400706 218 225 218
0.147116 -0.393452 1.374236 218 225 218
0.152258 -0.393374 1.373967 217 224 217
0.155928 -0.389625 1.360872 214 221 214
0.161059 -0.389650 1.360959 215 222 215
0.165276 -0.387531 1.353556 216 223 216
0.170374 -0.387540 1.353590 217 224 217
0.174304 -0.384970 1.344611 217 224 217
0.178161 -0.382389 1.335597 216 223 216
0.183167 -0.382347 1.335450 216 223 216
0.186431 -0.378769 1.322953 220 227 220
0.191375 -0.378700 1.322713 218 225 218
0.194001 -0.374165 1.306874 220 227 220
0.198968 -0.374257 1.307193 221 228 221
0.200654 -0.368322 1.286466 220 227 220
0.203091 -0.364014 1.271419 223 230 223
0.208072 -0.364358 1.272618 222 229 222
0.214918 -0.367879 1.284918 222 229 223
0.219758 -0.367886 1.284942 222 229 221
0.226742 -0.371406 1.297235 223 230 222
0.231739 -0.371591 1.297881 221 228 220
0.235677 -0.370106 1.292696 221 228 220
0.237428 -0.365315 1.275963 221 228 220
0.242239 -0.365329 1.276012 222 229 221
0.245688 -0.363329 1.269025 218 225 217
0.250353 -0.363169 1.268468 218 224 218
0.525567 -0.147853 0.516418 201 196 196
0.527993 -0.147989 0.516891 202 197 197
0.533052 -0.148858 0.519929 203 204 201
0.538475 -0.149823 0.523297 199 200 197
0.540220 -0.149761 0.523080 200 200 198
0.565602 -0.152897 0.534036 185 184 182
0.585781 -0.153976 0.537802 232 230 228
0.587811 -0.153977 0.537808 229 229 227
0.591800 -0.154490 0.539599 227 228 227
0.593951 -0.154522 0.539709 227 227 225
0.601478 -0.155947 0.544686 225 223 218
0.605582 -0.156477 0.546540 223 222 218
0.607824 -0.156525 0.546707 222 222 217
0.610294 -0.156631 0.547076 220 220 215
0.612332 -0.156626 0.547058 220 219 215
0.649552 -0.160742 0.561435 214 215 212
0.648243 -0.159898 0.558487 217 219 214
0.651505 -0.160183 0.559484 216 217 214
0.650320 -0.159377 0.556667 218 220 216
0.651795 -0.159226 0.556139 222 223 219
0.651507 -0.158646 0.554114 218 218 215
0.653550 -0.158636 0.554078 219 218 216
0.657073 -0.158984 0.555293 218 217 215
0.661946 -0.159655 0.557638 215 216 213
0.663933 -0.159628 0.557545 215 215 213
0.669425 -0.160442 0.560386 213 211 214
0.671405 -0.160411 0.560278 212 210 213
-0.815802 -0.213015 0.753923 51 52 54
-0.817461 -0.214193 0.758092 45 46 48
-0.814756 -0.214232 0.758230 42 43 45
-0.815277 -0.215122 0.761381 46 47 48
-0.812398 -0.215119 0.761368 54 55 57
-0.811774 -0.215714 0.763476 46 47 48
-0.807083 -0.215230 0.761760 44 45 46
-0.808883 -0.216479 0.766180 43 44 45
-0.811091 -0.217846 0.771019 44 45 47
-0.806844 -0.217483 0.769737 48 49 53
-0.807177 -0.218357 0.772828 47 48 52
-0.802869 -0.217977 0.771483 45 46 51
-0.804285 -0.219154 0.775648 36 37 42
-0.802402 -0.219437 0.776651 25 26 31
-0.799513 -0.219446 0.776684 24 25 28
-0.798660 -0.220016 0.778701 23 24 28
-0.795714 -0.220012 0.778686 22 23 28
-0.792189 -0.219847 0.778102 24 25 30
-0.789304 -0.219859 0.778145 22 27 34
-0.795350 -0.222368 0.787025 21 24 30
-0.788554 -0.221292 0.783217 20 23 33
-0.793158 -0.223419 0.790745 18 21 30
-1.220125 -0.441387 1.562198 213 222 228
-1.214245 -0.441387 1.562197 213 222 229
-1.222612 -0.450979 1.596144 219 226 241
-1.247750 -0.462523 1.637004 218 225 237
-1.240567 -0.462142 1.635656 218 224 242
-1.255476 -0.472384 1.671903 219 227 251
-1.258460 -0.475891 1.684317 219 227 252
-1.253278 -0.476331 1.685873 221 228 252
-1.233724 -0.471284 1.668012 221 228 251
-1.225566 -0.470562 1.665456 219 226 252
-1.218580 -0.470285 1.664475 217 225 253
-1.230780 -0.477447 1.689824 218 226 253
-1.224197 -0.477360 1.689515 218 225 254
-1.226440 -0.480731 1.701447 216 223 252
-1.219935 -0.480691 1.701305 220 227 254
-1.224750 -0.485134 1.717030 223 229 254
-1.222908 -0.486973 1.723540 226 232 254
-1.216063 -0.486829 1.723031 228 232 254
-1.194497 -0.591788 2.094510 252 255 255
-1.190149 -0.593550 2.100747 252 255 255
-1.186360 -0.595617 2.108062 251 255 255
-1.180395 -0.596612 2.111582 253 255 255
-1.185473 -0.603239 2.135038 253 255 255
-1.211761 -0.620823 2.197274 253 254 255
-1.203528 -0.620842 2.197339 254 255 255
-1.212235 -0.629659 2.228547 253 254 255
-1.203928 -0.629700 2.228693 252 255 255
-1.190698 -0.627150 2.219665 254 254 255
-1.182450 -0.627205 2.219862 255 254 255
-1.158838 -0.619054 2.191011 255 255 255
-1.156093 -0.622013 2.201486 254 254 255
-1.147986 -0.622109 2.201825 252 251 255
-1.146532 -0.625839 2.215024 247 246 255
-1.138021 -0.625742 2.214681 244 243 254
-1.147104 -0.635389 2.248827 243 240 253
-1.138254 -0.635173 2.248062 242 238 251
-1.127972 -0.634149 2.244436 242 237 251
-1.140663 -0.646122 2.286812 238 234 247
-1.133228 -0.646789 2.289176 239 232 246
-1.159820 -0.667037 2.360838 237 231 244
-1.150654 -0.666874 2.360260 240 230 245
-1.156561 -0.675511 2.390831 236 227 242
-1.144758 -0.673860 2.384985 238 230 243
-1.127741 -0.669088 2.368097 236 227 241
-1.081355 -0.646677 2.288779 237 228 243
-1.072755 -0.646685 2.288807 237 227 241
-1.050163 -0.638190 2.258740 235 228 239
-1.041686 -0.638204 2.258790 233 225 240
-1.039983 -0.642403 2.273650 235 230 242
-1.030975 -0.642120 2.272651 235 230 239
-1.023750 -0.642954 2.275602 230 227 241
-0.920899 -0.642890 2.275376 129 136 156
-0.901594 -0.641339 2.269886 138 146 173
-0.918563 -0.745190 2.637443 166 176 171
-0.901022 -0.738944 2.615336 154 165 164
-0.914614 -0.766842 2.714077 157 168 163
-0.841270 -0.756000 2.675705 142 151 137
-0.823152 -0.748680 2.649795 131 138 119
-0.815903 -0.751186 2.658667 130 137 119
-0.806219 -0.751485 2.659723 135 141 120
-0.810571 -0.765040 2.707697 143 149 128
-0.798904 -0.763627 2.702698 148 153 131
-0.796178 -0.770834 2.728206 150 155 133
-0.785263 -0.770198 2.725955 151 156 134
-0.774861 -0.770055 2.725449 152 157 135
-0.751392 -0.756747 2.678349 157 162 140
-0.742102 -0.757553 2.681200 160 165 143
-0.720111 -0.745237 2.637609 157 162 139
-0.710022 -0.745064 2.636999 156 161 138
-0.696199 -0.740914 2.622311 160 165 142
-0.696506 -0.751899 2.661189 161 166 143
-0.686439 -0.751841 2.660985 160 165 142
-0.679767 -0.755555 2.674130 161 166 143
-0.669677 -0.755524 2.674020 162 167 144
-0.657461 -0.753058 2.665291 161 167 144
-0.647496 -0.753133 2.665557 161 166 143
-0.630636 -0.745064 2.636999 163 167 144
-0.623253 -0.748114 2.647791 163 167 144
-0.613255 -0.748071 2.647642 161 165 142
-0.603152 -0.747898 2.647029 162 166 143
-0.593238 -0.747958 2.647242 163 167 144
-0.595070 -0.763082 2.700768 161 165 142
-0.585005 -0.763210 2.701221 162 166 143
-0.585032 -0.776741 2.749111 161 165 142
-0.581857 -0.786433 2.783413 161 165 142
-0.571504 -0.786599 2.784001 163 167 144
-0.546476 -0.766196 2.711790 158 162 140
-0.537642 -0.768154 2.718722 160 164 140
-0.507045 -0.738492 2.613737 155 159 132
-0.498659 -0.740644 2.621356 156 160 134
-0.480115 -0.727494 2.574813 153 157 132
-0.443161 -0.685329 2.425578 148 152 127
-0.438059 -0.691685 2.448076 147 151 125
-0.397448 -0.641043 2.268836 143 147 121
-0.390494 -0.643653 2.278075 143 151 122
-0.370367 -0.624180 2.209155 141 147 119
-0.362050 -0.624174 2.209134 142 143 119
-0.360052 -0.635318 2.248575 136 138 114
-0.354007 -0.639685 2.264030 136 143 112
-0.345199 -0.639151 2.262141 140 146 116
-0.335189 -0.636308 2.252080 153 159 127
-0.332811 -0.648181 2.294101 159 165 133
-0.320997 -0.641822 2.271594 147 154 126
-0.305369 -0.644922 2.282566 142 153 122
-0.243843 -0.599263 2.120965 190 194 183
-0.223615 -0.588046 2.081266 185 193 176
-0.203568 -0.554758 1.963449 189 198 189
-0.196140 -0.554646 1.963053 203 210 200
-0.182519 -0.536328 1.898219 191 203 196
-0.177236 -0.542018 1.918360 193 205 197
-0.167965 -0.535476 1.895205 197 209 202
-0.160815 -0.535416 1.894992 196 208 199
-0.152944 -0.532838 1.885867 197 207 204
-0.148610 -0.542929 1.921582 199 209 206
-0.141352 -0.542825 1.921215 199 209 205
-0.133727 -0.541225 1.915551 199 209 205
-0.126542 -0.541326 1.915910 198 208 203
-0.118364 -0.536934 1.900367 200 210 204
-0.111153 -0.536642 1.899334 200 210 208
-0.102631 -0.529552 1.874239 204 214 213
-0.094384 -0.522936 1.850822 203 213 208
-0.087418 -0.522928 1.850795 205 214 208
-0.079101 -0.514139 1.819688 204 213 208
-0.072239 -0.514038 1.819331 206 215 210
-0.063317 -0.497717 1.761566 206 215 210
-0.056707 -0.497886 1.762163 205 214 209
-0.049423 -0.491395 1.739188 206 215 210
-0.042625 -0.488492 1.728913 208 217 212
-0.036119 -0.488494 1.728924 207 216 211
-0.029658 -0.489234 1.731540 208 217 212
-0.023140 -0.489199 1.731418 209 218 213
-0.016338 -0.480742 1.701487 208 217 212
-0.009934 -0.480713 1.701382 210 219 214
-0.003444 -0.468789 1.659181 208 218 214
0.002764 -0.462898 1.638329 211 218 212
0.008928 -0.462822 1.638062 212 218 211
0.015138 -0.464226 1.643032 213 220 213
0.021304 -0.463868 1.641765 213 220 213
0.040129 -0.467253 1.653743 213 220 213
0.044548 -0.449063 1.589364 214 221 214
0.050519 -0.448975 1.589054 215 222 215
0.056193 -0.446546 1.580456 216 223 216
0.062215 -0.447084 1.582359 217 224 217
0.067156 -0.440435 1.558828 216 223 216
0.073053 -0.440624 1.559495 215 222 215
0.078821 -0.440060 1.557500 217 224 217
0.083053 -0.431595 1.527540 216 223 216
0.088802 -0.431599 1.527553 217 224 217
0.093567 -0.427111 1.511670 218 225 218
0.099263 -0.427145 1.511791 218 225 218
0.105050 -0.427543 1.513200 219 226 219
0.110733 -0.427501 1.513050 220 227 220
0.115803 -0.425211 1.504946 220 227 220
0.119242 -0.417424 1.477386 220 227 220
0.124859 -0.417616 1.478065 219 226 219
0.127903 -0.409552 1.449522 221 228 221
0.133441 -0.409808 1.450428 220 227 220
0.136212 -0.401880 1.422369 220 227 220
0.141642 -0.402101 1.423153 220 227 220
0.144941 -0.396477 1.403247 219 226 219
0.148494 -0.391917 1.387108 216 223 216
0.153722 -0.391937 1.387178 214 221 214
0.157699 -0.388872 1.376332 214 221 214
0.162799 -0.388684 1.375665 218 225 218
0.166417 -0.385077 1.362898 218 225 218
0.171605 -0.385210 1.363369 216 223 216
0.175397 -0.382291 1.353040 215 222 215
0.178239 -0.377526 1.336176 216 223 216
0.183222 -0.377434 1.335847 218 225 218
0.187333 -0.375599 1.329353 219 226 219
0.192396 -0.375716 1.329769 220 227 220
0.194285 -0.369787 1.308785 219 226 219
0.198978 -0.369356 1.307258 223 230 223
0.201026 -0.364156 1.288853 224 231 224
0.202627 -0.358409 1.268513 223 230 223
0.207398 -0.358405 1.268498 223 230 223
0.214809 -0.362859 1.284262 223 230 224
0.219590 -0.362773 1.283961 223 230 222
0.224885 -0.363523 1.286612 224 231 223
0.229758 -0.363572 1.286788 221 228 220
0.233446 -0.361784 1.280457 222 229 221
0.235933 -0.358244 1.267931 222 229 221
0.240720 -0.358268 1.268013 220 227 219
0.244766 -0.357209 1.264265 222 229 221
0.249570 -0.357274 1.264498 218 225 218
0.254960 -0.358162 1.267641 223 231 219
0.259779 -0.358229 1.267876 220 228 218
0.263230 -0.356441 1.261549 224 232 218
0.264830 -0.352256 1.246736 225 234 221
0.269722 -0.352518 1.247662 226 231 217
0.536048 -0.147727 0.522850 196 196 194
0.544562 -0.149525 0.529212 202 201 199
0.546112 -0.149404 0.528785 201 200 198
0.594679 -0.155333 0.549770 230 229 227
0.597065 -0.155416 0.550062 230 229 227
0.598136 -0.155157 0.549145 230 228 227
0.600237 -0.155166 0.549176 227 227 225
0.602851 -0.155307 0.549675 227 227 224
0.604844 -0.155287 0.549606 227 226 224
0.605927 -0.155035 0.548715 224 222 218
0.607519 -0.154915 0.548288 222 221 217
0.609577 -0.154913 0.548284 223 219 216
0.650177 -0.158782 0.561975 218 214 213
0.648409 -0.157837 0.558630 221 215 215
0.651484 -0.158073 0.559466 221 216 216
0.652876 -0.157900 0.558855 223 218 217
0.655172 -0.157947 0.559020 220 215 214
0.661559 -0.158976 0.562663 215 216 213
0.662171 -0.158616 0.561386 218 217 215
0.671437 -0.160324 0.567432 215 214 212
0.675692 -0.160828 0.569217 212 211 209
0.677833 -0.160828 0.569217 212 211 209
0.677266 -0.160187 0.566950 212 211 208
0.679886 -0.160302 0.567356 211 210 207
-0.829198 -0.211424 0.758391 46 47 49
-0.823429 -0.210678 0.755715 53 54 56
-0.820066 -0.210544 0.755237 52 53 55
-0.819426 -0.211112 0.757272 50 51 52
-0.817574 -0.211370 0.758197 49 50 52
-0.815044 -0.211454 0.758498 46 47 52
-0.814839 -0.212143 0.760972 45 46 50
-0.812080 -0.212171 0.761070 54 55 59
-0.811785 -0.212844 0.763486 55 56 60
-0.808097 -0.212630 0.762717 52 53 57
-0.807953 -0.213350 0.765299 47 48 51
-0.810630 -0.214822 0.770581 45 46 49
-0.807000 -0.214628 0.769885 47 48 53
-0.806853 -0.215362 0.772518 45 46 50
-0.802369 -0.214940 0.771003 47 48 52
-0.804164 -0.216202 0.775532 34 35 38
-0.802462 -0.216531 0.776709 24 25 29
-0.799916 -0.216633 0.777075 22 23 27
-0.798743 -0.217109 0.778783 22 23 27
-0.795755 -0.217093 0.778727 22 23 28
-0.792172 -0.216914 0.778086 23 24 29
-0.789234 -0.216911 0.778075 22 25 30
-0.795309 -0.219395 0.786984 21 23 27
-0.789533 -0.218616 0.784189 18 21 28
-0.793774 -0.220615 0.791359 19 22 27
-0.802584 -0.223903 0.803155 27 31 39
-1.169465 -0.385825 1.383978 224 235 251
-1.188745 -0.393939 1.413086 228 238 251
-1.186884 -0.395090 1.417215 232 240 252
-1.195178 -0.403287 1.446618 241 248 254
-1.189650 -0.403259 1.446515 240 246 252
-1.183131 -0.402893 1.445202 241 248 255
-1.226118 -0.446248 1.600721 235 245 255
-1.242706 -0.456773 1.638475 235 245 255
-1.256704 -0.466548 1.673538 232 243 255
-1.260331 -0.470251 1.686822 232 244 255
-1.254013 -0.470262 1.686861 231 243 255
-1.231645 -0.464224 1.665201 230 241 255
-1.221921 -0.462914 1.660503 227 240 255
-1.215726 -0.462934 1.660576 226 239 255
-1.229091 -0.470442 1.687505 226 238 255
-1.222726 -0.470436 1.687485 223 237 254
-1.228885 -0.475274 1.704839 221 234 252
-1.223371 -0.475625 1.706097 221 232 254
-1.230047 -0.480743 1.724455 216 228 251
-1.230362 -0.483416 1.734045 216 228 251
-1.225559 -0.484097 1.736487 214 226 250
-1.233874 -0.503488 1.806045 210 222 250
-1.223847 -0.502163 1.801291 209 221 249
-1.249376 -0.515493 1.849105 212 224 252
-1.240708 -0.514783 1.846562 212 225 254
-1.247864 -0.520668 1.867671 208 224 254
-1.239324 -0.520034 1.865397 210 226 254
-1.199169 -0.586190 2.102702 238 246 249
-1.188221 -0.584696 2.097344 239 243 249
-1.188378 -0.588684 2.111648 238 244 250
-1.178857 -0.587898 2.108830 241 244 246
-1.184925 -0.594930 2.134052 241 245 246
-1.209906 -0.611617 2.193911 243 244 251
-1.201680 -0.611632 2.193965 244 245 251
-1.206313 -0.618238 2.217661 241 242 248
-1.198533 -0.618529 2.218706 241 243 248
-1.184881 -0.615774 2.208821 242 242 250
-1.177204 -0.616106 2.210012 243 241 250
-1.154991 -0.608781 2.183738 242 241 248
-1.147609 -0.609225 2.185331 237 236 242
-0.947635 -0.618253 2.217714 179 185 187
-0.940978 -0.619364 2.221700 173 181 182
-0.937715 -0.622750 2.233843 174 182 185
-0.944475 -0.638690 2.291024 155 164 166
-0.916761 -0.631477 2.265150 123 134 132
-0.901423 -0.632678 2.269456 122 136 133
-0.907283 -0.642881 2.306056 124 138 136
-0.881131 -0.642794 2.305745 135 151 151
-0.874058 -0.650445 2.333189 120 136 136
-0.866451 -0.651327 2.336351 119 135 140
-0.866173 -0.657792 2.359544 121 137 142
-0.859080 -0.659163 2.364459 115 128 135
-0.847607 -0.657166 2.357299 115 128 136
-0.848545 -0.664852 2.384866 119 135 134
-0.887484 -0.759633 2.724853 144 152 136
-0.878045 -0.760339 2.727384 143 152 138
-0.859060 -0.752697 2.699973 148 152 139
-0.840982 -0.745677 2.674791 144 149 136
-0.824498 -0.739916 2.654127 133 141 125
-0.819726 -0.744654 2.671123 128 137 122
-0.806515 -0.741748 2.660699 135 139 123
-0.810987 -0.755237 2.709085 145 148 133
-0.804003 -0.758265 2.719948 154 158 141
-0.796928 -0.761284 2.730775 153 158 140
-0.785486 -0.760156 2.726730 155 160 139
-0.775135 -0.760068 2.726412 153 158 135
-0.753204 -0.748470 2.684810 155 160 138
-0.742183 -0.747545 2.681494 156 161 139
-0.718904 -0.734079 2.633188 160 165 143
-0.709974 -0.735092 2.636824 159 164 143
-0.695535 -0.730349 2.619811 160 165 143
-0.696438 -0.741811 2.660926 159 164 141
-0.686353 -0.741735 2.660651 157 162 139
-0.679758 -0.745482 2.674092 160 165 142
-0.669665 -0.745448 2.673972 160 165 142
-0.657476 -0.743045 2.665352 161 166 143
-0.647479 -0.743083 2.665486 161 166 143
-0.630680 -0.735192 2.637183 162 166 143
-0.623196 -0.738083 2.647550 165 169 146
-0.613310 -0.738174 2.647878 165 169 147
-0.603108 -0.737884 2.646839 163 167 145
-0.593059 -0.737773 2.646441 161 165 143
-0.594888 -0.752688 2.699940 162 166 144
-0.584794 -0.752773 2.700247 162 166 144
-0.584597 -0.765826 2.747068 163 167 145
-0.581922 -0.776044 2.783721 162 166 144
-0.571624 -0.776285 2.784585 159 163 141
-0.547497 -0.757404 2.716857 159 163 141
-0.536408 -0.756184 2.712480 157 161 139
-0.509010 -0.731480 2.623866 158 162 136
-0.497287 -0.728770 2.614147 153 157 132
-0.478777 -0.715804 2.567635 152 156 131
-0.445908 -0.680393 2.440614 149 153 127
-0.433223 -0.674939 2.421050 146 150 124
-0.396801 -0.631476 2.265145 144 148 123
-0.389351 -0.633222 2.271408 142 149 122
-0.370370 -0.615873 2.209177 141 148 120
-0.362160 -0.616048 2.209805 139 145 118
-0.359826 -0.626463 2.247163 139 144 118
-0.354492 -0.632030 2.267131 137 143 112
-0.345666 -0.631491 2.265199 138 144 114
-0.333466 -0.624605 2.240498 157 163 138
-0.325643 -0.625775 2.244695 159 166 139
-0.316285 -0.623976 2.238243 167 169 150
-0.312071 -0.632506 2.268842 150 152 132
-0.219168 -0.568675 2.039875 174 184 167
-0.198271 -0.553206 1.984387 175 183 168
-0.184249 -0.534202 1.916218 199 206 194
-0.179111 -0.540456 1.938652 197 204 189
-0.169391 -0.532830 1.911296 204 212 201
-0.162342 -0.533298 1.912976 203 212 199
-0.154832 -0.532229 1.909141 201 207 200
-0.148715 -0.536078 1.922946 202 209 201
-0.141383 -0.535713 1.921636 202 207 202
-0.133690 -0.533872 1.915032 203 209 203
-0.126583 -0.534288 1.916528 203 208 206
-0.118357 -0.529752 1.900255 202 207 205
-0.111150 -0.529484 1.899293 205 210 207
-0.102674 -0.522720 1.875030 207 211 208
-0.094388 -0.515996 1.850910 203 212 208
-0.087415 -0.515945 1.850729 203 213 209
-0.079087 -0.507199 1.819355 205 214 211
-0.072260 -0.507339 1.819858 204 214 210
-0.063317 -0.491094 1.761585 204 214 210
-0.056686 -0.491076 1.761522 205 215 212
-0.049417 -0.484793 1.738986 205 215 211
-0.042626 -0.482000 1.728966 207 216 212
-0.036117 -0.481964 1.728838 206 216 212
-0.029657 -0.482701 1.731481 207 217 213
-0.023143 -0.482732 1.731590 207 217 214
-0.016338 -0.474353 1.701536 207 217 213
-0.009935 -0.474335 1.701470 209 219 215
-0.003444 -0.462557 1.659221 207 217 214
0.002764 -0.456760 1.638427 210 217 211
0.008923 -0.456427 1.637232 213 220 212
0.015149 -0.458380 1.644240 213 220 213
0.021333 -0.458318 1.644015 212 219 212
0.040083 -0.460495 1.651826 215 222 215
0.044545 -0.443054 1.589262 216 223 216
0.050570 -0.443444 1.590662 216 223 216
0.056232 -0.440907 1.581564 217 224 217
0.062233 -0.441259 1.582824 216 223 216
0.067172 -0.434673 1.559201 217 224 217
0.073077 -0.434899 1.560010 219 226 219
0.078844 -0.434327 1.557961 217 224 217
0.083037 -0.425769 1.527262 217 224 217
0.088805 -0.425869 1.527618 218 225 218
0.093566 -0.421419 1.511659 218 225 218
0.099259 -0.421438 1.511726 218 225 218
0.105083 -0.421980 1.513672 217 224 217
0.110759 -0.421906 1.513405 218 225 218
0.115831 -0.419646 1.505298 220 227 220
0.119343 -0.412214 1.478637 219 226 219
0.124855 -0.412039 1.478011 219 226 219
0.127931 -0.404187 1.449847 220 227 220
0.133308 -0.403948 1.448989 218 225 218
0.136260 -0.396668 1.422875 219 226 219
0.141547 -0.396479 1.422194 217 224 217
0.144971 -0.391275 1.403529 214 221 214
0.148495 -0.386700 1.387117 215 222 215
0.153722 -0.386718 1.387181 215 222 215
0.157666 -0.383613 1.376045 216 223 216
0.162838 -0.383599 1.375993 217 224 217
0.166421 -0.379956 1.362927 215 222 215
0.171564 -0.379987 1.363040 218 225 218
0.175358 -0.377117 1.352744 217 224 217
0.178238 -0.372497 1.336170 217 224 218
0.183238 -0.372441 1.335969 219 226 220
0.187414 -0.370756 1.329925 221 228 221
0.192409 -0.370738 1.329861 220 227 221
0.194119 -0.364550 1.307666 221 228 222
0.199232 -0.364903 1.308931 220 227 221
0.201024 -0.359302 1.288840 223 230 224
0.202666 -0.353704 1.268758 225 232 225
0.207429 -0.353684 1.268686 222 229 222
0.214823 -0.358050 1.284347 223 230 223
0.219642 -0.358027 1.284265 223 230 221
0.224874 -0.358665 1.286553 223 230 222
0.229726 -0.358680 1.286609 224 231 223
0.233426 -0.356934 1.280346 220 227 219
0.235938 -0.353480 1.267955 224 231 223
0.240703 -0.353470 1.267921 221 228 220
0.244776 -0.352465 1.264314 222 229 222
0.249474 -0.352381 1.264015 219 226 220
0.254956 -0.353386 1.267618 221 229 217
0.259682 -0.353326 1.267402 225 233 223
0.263185 -0.351634 1.261333 226 234 220
0.265030 -0.347826 1.247676 224 233 221
0.269705 -0.347801 1.247585 226 231 217
0.536402 -0.145856 0.523196 199 198 197
0.544684 -0.147566 0.529330 200 199 198
0.545895 -0.147356 0.528574 201 200 198
0.594986 -0.153344 0.550053 228 227 225
0.596876 -0.153297 0.549888 229 228 226
0.598081 -0.153076 0.549094 228 226 225
0.599902 -0.153014 0.548870 228 227 223
0.602733 -0.153208 0.549568 228 227 222
0.604930 -0.153241 0.549685 226 226 221
0.605990 -0.152986 0.548772 221 222 217
0.607328 -0.152803 0.548116 220 222 217
0.609652 -0.152869 0.548350 221 217 213
0.650361 -0.156712 0.562135 227 222 221
0.648170 -0.155677 0.558425 222 218 216
0.651587 -0.155992 0.559554 218 214 212
0.652916 -0.155807 0.558890 219 215 213
0.655297 -0.155873 0.559126 220 216 213
0.662218 -0.157015 0.563224 213 214 210
0.664816 -0.157128 0.563629 214 213 210
0.671916 -0.158301 0.567837 213 212 209
0.675644 -0.158675 0.569177 211 210 208
0.678322 -0.158801 0.569628 208 207 205
0.678393 -0.158317 0.567893 205 204 202
0.680318 -0.158268 0.567716 206 206 203
-0.814917 -0.205686 0.747903 43 44 46
-0.813162 -0.205954 0.748878 47 48 50
-0.811795 -0.206323 0.750220 51 52 54
-0.816965 -0.208361 0.757632 52 53 55
-0.813501 -0.208204 0.757062 50 51 53
-0.818783 -0.210293 0.764655 47 48 50
-0.816749 -0.210510 0.765446 51 52 54
-0.816440 -0.211175 0.767864 61 62 64
-0.813470 -0.211154 0.767788 64 65 67
-0.811230 -0.211323 0.768403 58 59 62
-0.813112 -0.212572 0.772941 52 53 56
-0.809521 -0.212392 0.772290 51 52 56
-0.809481 -0.213147 0.775034 52 53 57
-0.806530 -0.213138 0.775001 49 50 54
-0.806392 -0.213875 0.777681 32 33 37
-0.803150 -0.213791 0.777375 23 24 28
-0.801054 -0.214013 0.778181 22 23 27
-0.801019 -0.214788 0.781002 23 24 28
-0.798341 -0.214858 0.781257 22 23 28
-0.796166 -0.215065 0.782008 22 23 28
-0.793592 -0.215165 0.782372 22 23 27
-0.798033 -0.217175 0.789680 22 21 25
-0.793635 -0.216785 0.788263 19 22 29
-0.795860 -0.218208 0.793438 20 23 30
-0.801749 -0.220651 0.802319 26 30 38
-1.156729 -0.374802 1.362836 222 235 254
-1.156936 -0.376539 1.369150 223 236 255
-1.164085 -0.380560 1.383773 224 236 255
-1.158097 -0.380304 1.382841 226 236 255
-1.166227 -0.384702 1.398834 226 237 254
-1.159356 -0.384169 1.396897 228 241 254
-1.171837 -0.390074 1.418367 230 241 254
-1.166352 -0.390025 1.418187 233 243 254
-1.248301 -0.435356 1.583019 241 249 255
-1.242579 -0.435439 1.583319 242 249 255
-1.234808 -0.434800 1.580998 243 248 255
-1.228876 -0.434806 1.581020 244 249 255
-1.210585 -0.430418 1.565065 244 249 255
-1.204437 -0.430326 1.564729 244 249 255
-1.186944 -0.426160 1.549579 244 249 255
-1.244759 -0.462834 1.682932 240 246 255
-1.233635 -0.461044 1.676422 236 243 255
-1.227260 -0.461018 1.676331 235 241 255
-1.230620 -0.464669 1.689604 231 237 254
-1.225621 -0.465185 1.691481 233 239 254
-1.226033 -0.467770 1.700882 230 236 254
-1.220794 -0.468216 1.702503 230 236 254
-1.224588 -0.472149 1.716802 225 232 252
-1.222999 -0.474037 1.723669 225 230 255
-1.215559 -0.473665 1.722317 223 226 254
-1.261544 -0.570700 2.075148 165 179 201
-1.265610 -0.576105 2.094803 167 182 204
-1.259479 -0.576907 2.097720 162 176 197
-1.261638 -0.585232 2.127991 162 175 190
-1.216256 -0.578878 2.104886 188 198 208
-1.207738 -0.578592 2.103846 188 199 204
-1.201901 -0.579595 2.107492 189 201 207
-1.177850 -0.575593 2.092939 192 202 207
-1.169942 -0.575577 2.092883 197 202 207
-1.148229 -0.568723 2.067961 196 202 206
-1.140434 -0.568717 2.067937 196 201 208
-1.130905 -0.567839 2.064747 199 203 211
-1.129819 -0.571219 2.077035 198 203 210
-1.145477 -0.595617 2.165751 187 190 202
-1.142894 -0.598532 2.176351 185 190 200
-1.135872 -0.599148 2.178591 187 190 202
-1.114304 -0.592045 2.152761 191 192 207
-1.090662 -0.596840 2.170197 187 191 204
-1.109416 -0.630715 2.293374 182 184 201
-1.101786 -0.631288 2.295457 181 183 197
-1.116838 -0.644969 2.345202 179 180 196
-1.123717 -0.654110 2.378442 179 182 195
-1.116326 -0.655025 2.381768 179 181 196
-1.079877 -0.638767 2.322650 176 180 189
-1.072963 -0.639856 2.326610 176 181 190
-1.027917 -0.623163 2.265911 179 180 190
-0.952441 -0.629636 2.289449 173 179 176
-0.910354 -0.618600 2.249320 131 139 128
-0.897723 -0.621576 2.260141 132 141 128
-0.857842 -0.629761 2.289902 148 157 143
-0.837667 -0.627557 2.281890 143 151 138
-0.831303 -0.629240 2.288008 145 155 136
-0.831686 -0.636118 2.313020 146 155 138
-0.831514 -0.642713 2.337000 149 158 143
-0.841374 -0.657286 2.389988 147 156 142
-0.822927 -0.649821 2.362843 146 152 134
-0.861061 -0.687360 2.499341 144 151 135
-0.877944 -0.708577 2.576491 137 144 130
-0.872502 -0.712048 2.589111 135 144 130
-0.817218 -0.723484 2.630694 132 134 117
-0.801125 -0.726846 2.642919 135 140 118
-0.814689 -0.748444 2.721453 146 151 131
-0.806608 -0.750453 2.728758 157 162 139
-0.800262 -0.754150 2.742201 154 159 136
-0.786515 -0.750877 2.730301 153 158 136
-0.775732 -0.750386 2.728513 157 162 140
-0.737994 -0.723456 2.630592 157 162 140
-0.728334 -0.723694 2.631458 157 162 140
-0.701844 -0.706984 2.570698 160 165 142
-0.691253 -0.706048 2.567293 159 164 141
-0.689783 -0.714533 2.598146 157 162 139
-0.700678 -0.736254 2.677127 159 164 141
-0.690786 -0.736448 2.677834 161 166 143
-0.685673 -0.741819 2.697361 160 165 142
-0.675604 -0.741908 2.697688 159 164 141
-0.657252 -0.732765 2.664443 159 164 141
-0.647146 -0.732676 2.664117 160 165 142
-0.632510 -0.727373 2.644834 161 165 142
-0.623483 -0.728454 2.648767 160 164 140
-0.613554 -0.728500 2.648935 161 165 139
-0.603082 -0.727893 2.646725 163 167 141
-0.593162 -0.727941 2.646901 162 166 140
-0.598433 -0.746952 2.716028 163 167 141
-0.588114 -0.746828 2.715576 165 169 143
-0.589536 -0.761872 2.770278 163 167 141
-0.592058 -0.778904 2.832209 163 167 141
-0.581244 -0.778694 2.831447 160 164 138
-0.557479 -0.760803 2.766392 156 160 134
-0.546932 -0.760613 2.765701 155 159 133
-0.513673 -0.728217 2.647904 157 161 136
-0.506233 -0.731866 2.661171 156 160 135
-0.484239 -0.714197 2.596925 149 153 128
-0.449049 -0.675937 2.457806 147 151 125
-0.442461 -0.680027 2.472678 144 148 123
-0.401226 -0.629899 2.290404 142 146 120
-0.391805 -0.628611 2.285722 138 144 117
-0.368394 -0.604318 2.197390 142 148 121
-0.360286 -0.604587 2.198369 134 147 118
-0.357814 -0.614551 2.234597 133 145 117
-0.355196 -0.624736 2.271631 142 147 121
